ply
format ascii 1.0
element vertex 703
property double x
property double y
property double z
property uchar red
property uchar green
property uchar blue
end_header
-0.0549463075251503 0.3549327705148719 1.1926708094533300 106 110 109
-0.4064499503233716 -0.1127479327038893 1.2566315102550492 116 121 127
-0.3909813509209493 -0.1039625631151611 1.2852220844107072 17 10 17
-0.2052488974608194 -0.0811379626906879 1.3743630058646488 195 197 196
-0.0656764657971654 0.3034467063797376 1.1898914435944896 101 112 108
-0.0449211940389547 0.3228317775470356 1.1798122832392908 76 73 68
-0.0608138229063505 0.3460939689994971 1.2103276985079472 69 55 46
-0.0421779434206383 0.3635210978743064 1.2025034933013379 153 159 155
-0.3110083917692364 -0.2018250603207350 1.2274810061020491 51 42 43
-0.5659556728054334 0.0300008575847438 1.3618648259562725 141 135 139
-0.0510612168876196 0.3068767841227735 1.2181746651033949 19 9 7
-0.0599576986831234 0.3300264375595339 1.2297740316792682 54 40 37
-0.3914831376201906 -0.1225246496103891 1.2428772960050907 25 25 27
-0.3327960926899912 -0.1562318817770874 1.2465967525184156 112 115 120
-0.2780620418513154 -0.0557415996059907 1.3694553306348329 9 8 6
-0.0340669245566525 0.2405689686291403 1.1710952689774397 120 120 120
-0.0451961768591331 0.3676912312368354 1.2200718142841607 75 62 56
-0.0451961768591331 0.3676912312368354 1.2200718142841607 75 62 56
-0.4192407623870031 -0.0847774222983841 1.2659572995429356 48 47 53
-0.0791436558046670 -0.0456352739990505 1.2725780313609181 130 128 129
-0.0572153971597682 0.3456263569420583 1.1967711005321953 28 23 19
-0.0258113575086140 0.1804361343083267 1.1767494310584197 141 141 141
-0.3942574302426590 -0.1716007726475265 1.2108680354023473 32 25 32
-0.3941032413366561 -0.1718753731280719 1.2108166641560894 32 25 32
-0.3332979596122159 -0.1388582917661429 1.2729240110877871 12 14 13
-0.3314966601130487 -0.1362654267308344 1.2759022508009579 47 52 56
-0.0849022717582012 -0.0079829466657255 1.3189444214454329 41 34 26
-0.0738089665290710 -0.0016710224571382 1.3155492336924390 38 28 18
-0.0507044860775687 0.0637637295376641 1.2907372903547829 70 56 47
-0.0389200577696113 0.0812622581138630 1.2776013028601219 72 62 52
-0.0200111385303759 0.1429394184619934 1.2627049853397849 76 63 55
-0.3556564119475568 -0.1428359896795971 1.2329712155549408 30 28 33
-0.2817729913948104 -0.0911589444894408 1.3141124157903648 56 52 49
-0.0412924841415277 0.0459628445363783 1.2328934617497813 152 152 152
-0.0911494374924322 -0.0333683264780715 1.3199898624446738 23 11 11
-0.0331757753815361 0.1560582447795648 1.2062531776682865 29 19 17
-0.2595542417492780 -0.0453501225941521 1.3756900472636771 31 25 25
-0.2599522081535509 -0.0432873942672332 1.3741386771575952 27 23 24
-0.3162440343455441 -0.0449584955053785 1.3967557245637430 42 44 43
-0.0617249814876303 0.0142523694707409 1.3026388768655519 90 80 81
-0.0573736546510222 0.2436236275427428 1.1938549786576536 52 58 48
0.0175915583932310 0.0453681184948318 1.2879199346968297 107 107 107
-0.0469989557041849 0.2451271084265710 1.2377163526221757 62 59 54
-0.0658795088927024 0.3236371479714715 1.1901258788619831 54 58 61
-0.2448960856073988 -0.1044422624035246 1.3146191123242268 53 42 48
-0.2558762177550773 -0.0699638155630609 1.3456706335336359 38 26 28
-0.0971370810368344 -0.0252362250178059 1.3202617452158731 75 61 61
-0.0541121780050384 0.2374778247256278 1.1869414291730935 107 116 111
-0.0279749210889043 0.1805356086199657 1.2555409514483302 39 29 20
-0.0276910788532659 0.1802553105514208 1.2558377077913723 39 29 20
-0.4094904599220426 -0.1271583174990970 1.2732739987025723 31 38 46
-0.3554474255179988 -0.0601498621496969 1.3356486273446897 8 4 1
-0.3137550398686083 -0.0621159447875627 1.3390256434629841 27 21 21
-0.0981792278197918 -0.0246224862076165 1.2880447059623197 107 113 109
-0.0413429335691153 0.1986793915708217 1.1941197087922186 118 119 113
-0.0290860065344579 0.0732006369005915 1.2804514795810753 77 63 52
-0.0672598085131228 0.3313076834414189 1.1923828091958755 65 65 67
-0.0582993409110131 0.3250500403754340 1.2208214591222712 40 29 27
-0.2522507369396083 -0.0934723444369201 1.3148310819451388 77 77 75
-0.3730064534733971 -0.0197172808954288 1.3501513207093914 27 23 22
-0.3776558047994929 -0.0348646593921477 1.3745924961129339 17 13 14
-0.0410719146723355 0.1812815655268227 1.2049969080874952 32 23 16
-0.3124687801147862 -0.0101189606795589 1.4050855508988742 129 134 138
-0.0249542910695886 0.1782704864377443 1.2635480468443494 62 47 40
-0.3893072888955567 -0.1419390175713843 1.2173988792624852 41 44 51
-0.3519577994802859 -0.1132461429699956 1.2617423063204658 50 54 53
-0.2854018456076045 -0.1154365314571068 1.2452997569163147 52 47 53
-0.3016351447587940 -0.1198497694041637 1.2655523320586417 15 13 14
-0.0162962774092186 0.0362630474930572 1.2404829746389894 34 24 25
-0.0127271270645253 0.1220841674617773 1.2028577807487382 147 145 148
-0.0275026884003201 0.2566135287830456 1.1736536646370959 151 156 152
-0.0649935502071345 0.3112373975589096 1.1875068367715818 10 6 5
-0.0517190105547615 0.3193503252627791 1.2058422824962705 46 32 29
-0.0601217152212231 0.3476436166962573 1.2194520070627279 60 43 36
-0.3448815087311343 -0.0597472494295163 1.3385889436060243 69 57 59
-0.3743814518345397 -0.0320063396507409 1.3823649356502010 21 17 16
-0.2240134079162949 -0.0510827500956624 1.3944840634156150 143 142 147
-0.0256627414991436 0.1704394432358225 1.2720428736830522 147 147 149
-0.0553884596133794 0.3088131869479465 1.2087672121046482 43 29 26
-0.3916375922143821 -0.1094177650576347 1.2859758155140795 15 11 10
-0.3085266363794200 -0.1234276282779558 1.2788334990951911 17 13 12
-0.2430492261505414 -0.1123007086326752 1.3051981077875274 110 110 110
-0.0409949188662302 0.2214146696558245 1.1635737184814454 45 37 34
-0.2157179721899511 -0.0873918841408000 1.3894837943129175 38 29 30
0.0599946138771514 -0.3560266048034862 0.6978552993414920 136 141 145
-0.4030502986523710 -0.1331427421470022 1.2683600055290782 54 64 66
-0.2950766922962936 -0.0714471106018156 1.3226675493321631 31 23 21
-0.0045520833651105 0.1225124504513929 1.1801695630891220 82 78 79
-0.0436426044813820 -0.0482361518075597 1.2710080990781638 54 40 40
-0.0063562092791164 0.1351884400073123 1.1992259889499737 28 23 20
-0.1706875111710455 -0.2430846704880340 1.4351479097746636 132 135 140
-0.1962476046314340 -0.1259381429158886 1.4024528280072412 107 105 108
-0.0911771192411626 -0.0107944829232758 1.3174537868353333 51 41 40
-0.3934773669776602 -0.0301702379110015 1.4075197057780362 44 33 37
-0.0806790726818926 -0.0098404490813855 1.3181181292976649 45 37 26
-0.0435414098428951 0.0422666343759528 1.2969540125773780 81 75 75
-0.0466235883459711 0.2563459416188555 1.2245547909825230 43 35 32
-0.0936849249156865 -0.0316544358035490 1.2837192324663567 26 25 21
-0.0831843345437632 -0.0107281717631619 1.3169606914841723 81 77 68
-0.0157817555729928 0.1278273267341201 1.2385402693537562 107 107 109
-0.2814111769564405 -0.1239772411788411 1.2546673736772165 67 66 74
-0.0105467634502020 0.1252404751061929 1.1789084925774425 98 92 94
-0.0775699300143390 0.0028216207041063 1.2627020870290324 128 130 129
-0.2869772066143981 -0.0267114119266785 1.3982209460371220 95 80 85
-0.3143665142343168 -0.0729157033557884 1.3314150140004515 67 59 57
-0.0516921078294984 0.3177743556636676 1.2144780044018948 26 14 14
-0.2957970248827475 -0.1181057918317143 1.2410061058479409 58 59 63
-0.2827586435626153 -0.0591228918668984 1.3406774744433458 11 7 6
-0.3371062266571809 -0.0498146318474836 1.3901368358742083 36 45 42
-0.3066565661723902 -0.1270504467483552 1.2344533517742298 18 16 17
-0.3538376226578639 -0.0135278902465509 1.3907244855235201 55 38 46
-0.2619237675156958 -0.0854580930215623 1.2696010481551776 120 120 122
-0.3635941411561170 -0.1208931623521191 1.2783904584588228 48 46 51
-0.3039056532573698 -0.0105232571297370 1.4170516074332629 147 150 157
-0.3003522954467186 -0.1165143572124635 1.2422580401708792 30 30 30
-0.3304627235084465 -0.1576750855919724 1.2617795227450266 52 57 63
-0.3273591341545041 -0.1673804174903196 1.2623224575868011 54 59 65
-0.3726758505934627 -0.1059762101091892 1.2762515014985534 49 49 49
-0.3047413323679580 -0.1194574167249901 1.2587951033268345 24 29 33
-0.3582638164726839 -0.1061984012563630 1.2752228767636309 41 45 46
-0.3377736684757979 -0.1180841542568858 1.2917531181253379 12 10 11
-0.3662126400452250 -0.0994128141557733 1.3157900769304403 35 34 32
-0.3184005577084838 -0.1063249088683524 1.3209153426132083 28 24 23
-0.2572367182123779 -0.0966057398951227 1.3125901074169712 27 26 24
-0.2765098393107506 -0.0777538269629240 1.3229473229115580 36 39 32
-0.3521550211218679 -0.0644994675304163 1.3383844376667204 54 49 45
-0.3734637163127541 -0.0466185843912650 1.3375703580783693 46 46 44
-0.3033237376621010 -0.0593645251283017 1.3270484220700431 61 55 55
-0.3443767599970970 -0.0622564973663691 1.3453467016931147 27 23 20
-0.3296550812242926 -0.0542467664501974 1.3387588306133076 34 29 26
-0.3205963897265525 -0.0549636797682956 1.3433687907169951 40 34 34
-0.0409001512461783 -0.0194241884965233 1.2543831437434216 23 13 14
-0.0768784822656568 0.0089251510684729 1.2613354023440437 75 80 76
-0.0794196961209728 -0.0027794908092814 1.2676863883373366 92 95 88
-0.0655150057689213 0.0171583843383983 1.2562883227725286 53 57 56
-0.1015908268216556 -0.0288873344951643 1.2891600683222175 58 58 58
-0.1006639128643713 -0.0310498736161183 1.2903279717748013 58 58 58
-0.0415585891528381 0.0489625300055103 1.2374220116668877 107 111 110
-0.0458564978691598 0.0284201274535637 1.2484118198542846 62 64 63
-0.0508441387493793 0.0345687380267920 1.2471731029964941 44 46 43
-0.0466183623225323 0.0424792701382690 1.2433910917977649 50 58 47
-0.0464319944912076 0.0476147667891644 1.2456190074525382 65 67 66
-0.0457338306097639 0.0464848125777408 1.2459443874171674 65 67 66
-0.1705757420705580 -0.2338917998138237 1.4265986322727735 101 102 106
-0.0453594871047296 0.2052077487541946 1.1910103220685597 38 31 23
-0.1954673505478760 -0.1328063390171264 1.4094359061632222 122 121 126
-0.3303646190542478 -0.0327435128096964 1.3977096889533192 40 41 36
-0.0412230585707648 0.1965056447652791 1.2061094942358064 63 68 62
-0.3392482066536019 -0.0086571483165773 1.3899008863877385 48 39 40
-0.3408837595623380 -0.0135352514145153 1.3933148277506284 48 39 40
-0.2320491261108227 -0.0445324214501601 1.3921532581370630 81 79 84
-0.3282800526197526 -0.1436846534022619 1.2756659576453184 49 49 51
-0.3007477617663177 -0.1277716779597583 1.2635623509964482 12 14 13
-0.2829087823443244 -0.1264796537800932 1.2583465332347616 22 22 22
-0.3469462644437403 -0.0979195723263404 1.3057724768699863 24 24 24
-0.3734797830653629 -0.0618054823920371 1.3039388690777556 20 20 20
-0.3011340220094622 -0.1146333430245919 1.2981298925843416 41 32 35
-0.3440088000838007 -0.0932398119655254 1.3179904577715844 29 25 24
-0.3441051007786209 -0.0937550972797386 1.3181543025802913 29 25 24
-0.2699349414431148 -0.0958344954028419 1.3100821975920016 0 6 6
-0.2707289251528700 -0.0811602725472926 1.3182924467244654 49 46 41
-0.2824882435815684 -0.0618103437802191 1.3323416410684579 32 22 20
-0.2480123775043278 -0.0856032212493415 1.3317386668029256 54 47 41
-0.2519482179455392 -0.0776877119485084 1.3326319391219315 20 15 12
-0.0549633326553344 0.0156330600441921 1.2461361817326799 115 115 113
-0.0557984167688211 0.0274359139950026 1.2434243762603943 111 109 110
-0.0611613849592736 0.0211274778303638 1.2522752628253109 97 96 91
-0.0422762370552649 0.0407148555424948 1.2383506884840552 9 7 10
-0.0749068251799583 0.0048886591366248 1.2672755084563132 124 124 126
-0.0637361132306918 0.0189357684017682 1.2574767528513759 103 104 106
-0.0476445385774034 0.0399624855089890 1.2426145812392837 116 118 113
-0.0641808162683449 0.0210992459657375 1.2592988334528898 55 59 58
-0.0645479455241385 0.0207141567468359 1.2595483586917116 55 59 58
-0.2422492686314452 -0.0730099963658112 1.3717237538679001 23 18 15
-0.3304556528097935 -0.0505317677123821 1.3819237224868259 29 28 26
-0.0197494499247189 0.1815513176274475 1.1891334323036129 44 40 41
-0.0299012610627105 0.1371144768467810 1.2192986131308401 109 111 110
-0.0868197492252752 -0.0131875560780416 1.3208608079646578 109 100 93
-0.0686254038101052 0.0126204706541733 1.3063312370277416 39 25 22
-0.0433558189445638 0.1923322625951505 1.2031806605425917 72 77 71
-0.3280119933016806 -0.0332855562430896 1.3950719194008183 28 37 34
-0.0337758183022051 0.1700357805378477 1.2150106153460483 114 119 113
-0.0412882951383695 0.1916701450641293 1.2070389149213907 69 77 66
-0.0463066465788169 0.2031281804748343 1.2033805821560664 78 84 72
-0.0381095013674495 0.0652922451412179 1.2851181589246536 61 51 42
-0.0281720205577765 0.2630142078289566 1.1701671090002308 122 122 122
-0.0666160610663267 0.0218894252707409 1.3210283757748282 40 24 25
-0.0565135452764977 0.2426642457324824 1.1948055077224937 40 43 32
-0.0546155444343526 0.2418567735003251 1.1954683811396132 40 43 32
-0.0514827961016495 0.2343211608595083 1.1989573629805361 53 59 49
-0.0479106094111363 0.2240485278556874 1.2054025509448307 65 74 69
-0.0659448354333512 0.2568817879431750 1.1901228871286258 95 94 89
-0.0575290743235518 0.2499614390279413 1.1947422704600164 89 90 85
-0.0570592411194905 0.2482724931439249 1.1965797672322191 66 71 64
-0.3345023908318846 -0.0174578133053532 1.4165108552836041 59 49 48
-0.0597969339155376 0.2587126218473501 1.1911577834677110 45 41 40
-0.0487658654003637 0.2437545265159525 1.2042144743866359 57 61 46
-0.0573889398234704 0.2639242460717362 1.1988806478423919 71 73 72
-0.0245179572696027 0.1813225279226202 1.2567149391908361 67 54 46
-0.0659874581474754 0.3040910265467519 1.1859874738435985 31 20 16
-0.3594169213061928 -0.1413845815023670 1.2255627181388846 40 50 52
-0.2864495810874014 -0.1180630027256080 1.2492412787831371 52 54 53
-0.3095485019810704 -0.1317850838994050 1.2594400056008284 49 57 60
-0.3158345293769251 -0.1343585683177922 1.2788781283424371 14 15 17
-0.3150518461106399 -0.1235760864596822 1.2861073432391426 20 16 17
-0.3625973572808702 -0.0917579426857463 1.3098686625528873 13 12 10
-0.3566498455711233 -0.0926103910639309 1.3249732043611790 32 31 29
-0.3751477747570559 -0.0561415895357356 1.3201504044670378 71 62 63
-0.2863933655883841 -0.0648482378896781 1.3197385105537554 69 70 64
-0.3636462591251814 -0.0535938971023856 1.3353105657263360 18 14 13
-0.3052649859932219 -0.0686778465096710 1.3268775003520412 74 70 67
-0.3262641210275957 -0.0753880973569539 1.3372390065825075 68 62 62
-0.3346296474258832 -0.0639671080443601 1.3345183416009110 70 64 66
-0.2759684429010363 -0.0682924428744798 1.3223914621394965 58 55 48
-0.3631146698907803 -0.0494171978967623 1.3393378212480949 38 34 31
-0.3569540807380598 -0.0583404419740417 1.3414416378467167 19 16 11
-0.2509753030382251 -0.0814386243537536 1.3275073722614945 20 15 9
-0.3843631211262331 -0.0425159586582489 1.3489197979632732 52 49 56
-0.2367095596592605 -0.1058836987418526 1.3362954115108236 53 39 39
-0.3620352832143676 -0.0456048798909724 1.3528518066146502 35 31 28
-0.0166312473665099 0.1177123315920748 1.1835587465823021 148 146 147
-0.3673193246020021 -0.0477261161170886 1.3562797064301100 16 15 13
-0.0745487486394399 -0.0259523557126933 1.2655229222500330 143 145 144
-0.0438512069296855 -0.0127551003402214 1.2494825113433046 134 132 137
-0.3645517256970952 -0.0360995066504232 1.3628716157301957 17 16 14
-0.0367884355851261 0.0524528508700527 1.2354870993836913 85 81 80
-0.0410554903148225 0.0514316358703208 1.2434463409715997 53 54 56
-0.0416242262655311 0.0543836704561789 1.2424362828177220 53 54 56
-0.2984362108547635 -0.0494955510845833 1.3792959966629266 43 39 38
-0.3392578593130273 -0.0442236617438909 1.3864752475912052 36 38 35
-0.3564405088974797 -0.0204568350234689 1.3839742865452884 44 36 34
-0.3385377749356556 -0.0437125699630635 1.3923428442578409 39 38 34
-0.1024680299530387 -0.0555587030262752 1.3437469731413871 174 173 178
-0.0339958646846337 0.1607432413113389 1.2141760397243369 86 88 87
-0.2032808425550981 -0.0995152395603927 1.3933783083226254 109 96 103
-0.0354227081300253 0.1696716100428937 1.2124459071790681 58 60 55
-0.3251287169576552 -0.0282260126846545 1.3995449175472721 38 39 34
-0.0614349586992323 -0.0296281468317485 1.3412429798070964 84 67 59
0.0035254276554857 0.0458779508548361 1.2835996059153887 30 20 21
-0.3266771335162861 -0.0241992549194014 1.4014834155659652 20 16 15
-0.0492153246252562 0.2238541001612445 1.1991293910158181 91 97 93
-0.0579862091281632 0.2458468012074224 1.1908873819941626 112 119 111
-0.3166090278823944 -0.0372237477267809 1.4146669823878963 37 38 33
-0.0579833630185260 0.2492138976714744 1.1923138050378885 15 16 11
-0.0594415388291429 0.2543528635305856 1.1915794068078209 33 32 28
-0.0501840782336192 0.2369580597028335 1.2051498366958246 72 75 68
-0.0264972473420943 0.2731407810682604 1.1803219923562676 19 14 11
-0.0257049325804790 0.1754666827760296 1.2553195758383286 73 62 56
-0.0608110694116760 0.3195882381409942 1.1925991545515056 85 85 85
-0.0664025514243906 0.3243264248201470 1.1901948293791120 37 36 34
-0.0663292984130646 0.3354354253234762 1.1878039513449428 99 103 102
-0.0657999300354555 0.3398745375065197 1.1877674945478978 94 95 97
-0.3143995247665397 -0.1286579901612453 1.2302783840520661 113 121 124
-0.3572063514015109 -0.1072498761604218 1.2697282454637184 22 27 31
-0.3572458197093530 -0.1073810485953679 1.2695946199801165 59 57 62
-0.2822924472396981 -0.1080416417738626 1.2684828950706650 28 24 25
-0.3844563918521432 -0.0664844741104108 1.2892502801724834 23 23 23
-0.3133372455511417 -0.1215355001162753 1.2855616537371750 20 16 17
-0.3683027055648912 -0.0995379846139760 1.2973824728608863 20 16 15
-0.2681532836999319 -0.1745452002468814 1.2848223523729352 47 40 47
-0.3501887513415489 -0.1002469701064027 1.2947951527581021 23 23 23
-0.3468136585936977 -0.0972687343695734 1.3078282938930827 24 24 22
-0.3045043698571822 -0.1141087568299212 1.3001431621287654 57 48 53
-0.3028088130004079 -0.1134960604304103 1.3045896326428870 39 34 38
-0.3599685492470343 -0.0908197586045918 1.3221514463996251 18 17 15
-0.2787274604135023 -0.0772663588496807 1.3194677983191310 57 59 58
-0.3004346675355178 -0.1132085556739395 1.3400182357853292 67 64 59
-0.3607360238863842 -0.0555366937754826 1.3418316176366274 55 56 51
-0.3311366265442830 -0.0589038416603222 1.3379345486863408 65 60 57
-0.3676003457342334 -0.0451881912753944 1.3446287476952279 49 46 39
-0.3751805205872211 -0.0438015795957682 1.3497385496145071 43 38 35
-0.3324748756177118 -0.0514174887001551 1.3507049228625940 52 43 48
-0.0179380972858364 0.1240196147148083 1.1850024527091088 32 22 23
-0.0358936709242387 0.0574993765961204 1.2512383675516450 25 23 26
-0.0451879769869329 0.2004693627566975 1.1941584389914262 140 140 132
-0.0586701431918793 0.0296507068489583 1.3020142005361171 72 57 54
-0.3321720235824568 -0.0064129205975788 1.3959666884278261 43 31 33
-0.2880111226984108 -0.0252639357216267 1.3973881842910727 95 80 85
-0.0572397053644632 0.2463594598194917 1.1944991719969302 88 91 82
-0.3519930030756063 -0.0005584585996082 1.4154102801754707 27 25 26
-0.0194773355594889 0.1355792428430905 1.2727783087806950 168 168 166
-0.0319003049736205 0.2066756416586880 1.2458030482323044 66 56 47
-0.0639738855164067 0.3222809267640226 1.1945775646032943 26 27 21
-0.0486215995842852 0.2603469686495231 1.2428872646122411 68 58 49
-0.0544004492413412 0.3474005071833381 1.1816062236542220 25 24 20
-0.2904549899064020 -0.1918943366733940 1.2268297187281296 36 33 40
-0.2718502624112387 -0.1021230910156217 1.2907982668091995 59 63 62
-0.3808826286333112 -0.0547051452901359 1.3258525844607667 43 37 39
-0.2517492575073380 -0.0821159609849155 1.3361814083386183 19 16 11
-0.3363128208303219 -0.0502758901511938 1.3850357465117520 11 10 6
-0.1054578100710923 -0.0223730890737380 1.3256286556538988 45 33 33
-0.3494364666708436 -0.0197783555688687 1.3884496596945493 24 19 16
-0.0394450937308997 0.0482660583495097 1.2857030697277645 39 30 25
-0.3061719011122734 -0.0366930238440730 1.3999384194404383 51 45 49
-0.0277078195909681 0.2622617328444447 1.1728845369048626 32 26 26
-0.0600988121405647 0.2690669682026009 1.1913434092180397 33 25 23
-0.0179579226698064 0.1370550435376603 1.2682401039145041 75 61 58
-0.0424838550566182 0.3221417082517988 1.1767194388609392 37 30 24
-0.3557901636228131 -0.1466892989720365 1.2288784992858031 33 34 39
-0.2870658195268656 -0.2203789300027396 1.2237971866699526 125 122 129
-0.2853957836273847 -0.1217573233793801 1.2400879442921338 59 54 60
-0.2787900416778649 -0.1639091144486873 1.2536913476591665 46 45 53
-0.3540407835460397 -0.0570822232424471 1.3476490068872444 16 12 9
-0.3583487870378198 -0.0479759320781396 1.3534884792528699 30 26 23
-0.2159020199532722 -0.1015262667629120 1.3694467494267060 95 94 99
-0.3411370574911144 -0.0366027630847377 1.3920327650598319 14 10 7
-0.2566385737574932 -0.0432384994011566 1.3800876522017544 55 49 53
-0.0560704790441538 0.2424482264497582 1.1885147548148201 24 13 11
-0.0495567694743581 0.2797456720557310 1.2386741405386728 68 55 46
-0.0542454553329955 0.3123086046932249 1.2224092575912937 69 57 45
-0.2964308511707618 -0.2005967642561812 1.2186107349253950 34 34 34
-0.2373334682470682 -0.1018276537112398 1.3506130244701131 29 24 20
-0.0741820121216676 0.0011249759631595 1.2657914553010579 89 94 98
-0.0216209184603400 0.1313288234650997 1.2315579528337057 41 32 35
-0.2943269077601827 -0.0249808397362032 1.4018183540154658 37 28 31
-0.0507134203544193 0.2920629177978038 1.1791410876333543 106 111 105
-0.0232809524604399 0.1789135985397678 1.2521621970632497 24 20 11
-0.0471344623717657 0.3024503186888025 1.1762440930234848 104 106 103
-0.0481169402120754 0.2672076412348957 1.2384284542103368 65 52 44
-0.0609393763740724 0.3409556530931110 1.1905464554103256 29 23 23
-0.0614269899030977 0.3381418720684681 1.2117028277020467 41 33 30
-0.0618859088340133 0.3515975203624804 1.2167205439530131 57 40 30
-0.3396831573247180 -0.1501156257072087 1.2572492204573382 111 114 119
-0.3630660208436346 -0.1046375344751833 1.2784993810983858 56 57 61
-0.0367694254246811 0.2203448191423114 1.2451079019196722 66 53 45
-0.0627813591019431 0.3400956317373685 1.2282473351553711 56 41 36
-0.3126658272899469 -0.0490235020383526 1.3841750512703346 10 6 3
-0.4005212749339397 -0.1316503819209957 1.2361166714560945 53 62 67
-0.3722404601535420 -0.1046896073820157 1.2699497447636552 78 78 80
-0.3386473181496090 -0.1016059541721766 1.2906815983162203 47 47 47
-0.3869075742819936 -0.0634284189270552 1.3015884303565126 98 99 94
-0.3481693664284685 -0.0977020500184240 1.3032220625401143 70 74 75
-0.3397792442861836 -0.0975462438165667 1.3061138952377953 80 84 83
-0.3441802247572981 -0.0944858762660699 1.3079288022714117 17 15 18
-0.3670026001758574 -0.0931032035070940 1.3145964565248323 23 23 21
-0.3247861666460488 -0.1098147357429671 1.3057367572906444 12 10 13
-0.3873742202413086 -0.0577128411859561 1.3135027307619043 39 45 45
-0.2847680728069750 -0.0973785789165989 1.2948037047312280 84 75 80
-0.2748854220498098 -0.0987091890806056 1.3073331151920329 44 50 48
-0.2851151732057350 -0.0932125310178331 1.3199372789750798 25 25 25
-0.3554915368774980 -0.0877821409250942 1.3430032724352776 31 30 25
-0.2640473749085280 -0.0887473881585828 1.3190659684963579 44 40 39
-0.3767464299037276 -0.0459540268900104 1.3382043529149212 50 48 51
-0.3060939237539901 -0.0599256335668268 1.3280271370070527 59 54 60
-0.0690247407446906 0.0135543541655978 1.2583319397036075 65 66 68
-0.0719229709593794 -0.0101004410908538 1.2696429720404176 78 78 78
-0.0637691468138876 0.0215612674966601 1.2547015806720532 67 67 67
-0.0835413974861756 -0.0195434365968765 1.3186993319404223 66 55 51
-0.0592848099076335 0.0166728334181593 1.3038219817393681 32 24 21
-0.0301983404110996 0.0660736189580413 1.2973255389615608 86 67 60
-0.4050193268489440 -0.1761637533652886 1.1753854580975218 163 164 169
-0.2919264571310298 -0.1225377445058278 1.2293124969258058 31 34 39
-0.2967802482905246 -0.1157617567318333 1.2464307099553569 46 42 41
-0.3717064295789995 -0.1014319158549241 1.2782771519003733 33 34 36
-0.3036177777743784 -0.1170533473760028 1.2605079883258268 57 58 62
-0.3534888742566314 -0.1036820102062975 1.2775697156121679 57 61 62
-0.3704869271493943 -0.1004524710240822 1.2885609414206727 54 52 55
-0.3139463367316375 -0.1304672109660502 1.2872929282075576 19 17 18
-0.3390874804718955 -0.0955756746825953 1.3078003148217441 55 55 55
-0.3438640759365336 -0.0953202716131681 1.3100702188961277 54 52 57
-0.2752136764738562 -0.0960546906376802 1.2933172392360361 37 35 36
-0.2620046941383234 -0.0919946458918641 1.3132294770265616 28 27 25
-0.2664289152020904 -0.0828379909323819 1.3159586907212044 6 6 4
-0.2693035178389807 -0.0751139809173882 1.3187237912971466 40 36 33
-0.0462343422579904 -0.0087910890107608 1.2489097247696017 142 138 135
-0.3946565581649494 -0.0425952025813399 1.3818124316120779 32 32 32
-0.0237364866550979 0.1233004860753190 1.2108909065424365 104 104 102
-0.3399710145683481 -0.0477875547951550 1.3921244825718240 20 22 19
-0.3526817257799484 -0.0217982109219257 1.3846641686102452 30 24 24
-0.0381607588983980 0.1722307333415186 1.2069597715218918 72 75 68
-0.3418056722835325 -0.0093583402172035 1.3938337236340936 62 41 46
-0.0932873186537980 -0.0318841057033663 1.3465858080476110 49 40 33
-0.0420608457369127 0.2224618994300765 1.1875519796673670 43 36 30
-0.0414725996097325 0.1784457654616472 1.2142909460578406 65 70 63
-0.0364362970608354 0.2361916782464219 1.1804210518321783 32 24 21
-0.0530283445003900 0.0366597579437631 1.3126725112565010 45 27 25
-0.2983573444152843 -0.2052898102415383 1.2105320506147927 125 126 130
-0.3718833912619424 -0.1036698423848053 1.2812696030351882 59 59 61
-0.3353098929840935 -0.1315337449162758 1.2776835949542986 13 11 14
-0.3984099507667735 -0.0555669095256762 1.3172097336229445 59 54 50
-0.3077645840723235 -0.1093101241535855 1.3166454684363855 70 65 69
-0.3594674532511469 -0.0864981492372981 1.3257467498930615 62 58 59
-0.3193984259717856 -0.0764797089043110 1.3317259080827870 12 8 9
-0.3008670888241269 -0.0579951102874665 1.3361335927736626 65 55 56
-0.2910431282641739 -0.0562771082439253 1.3431062773708633 16 15 13
-0.2547903224995300 -0.0643591271096507 1.3684100349707544 51 39 49
-0.0681453129220233 0.0359115860605325 1.2656944841254103 25 20 17
-0.2406063203448379 -0.0661813441956486 1.3785332830742161 50 41 42
-0.3192883617207817 -0.0388512319127804 1.3955994547259187 16 20 21
-0.2406476397102930 -0.0356877694452867 1.3934695085318978 149 143 147
-0.0460699703447257 0.2006921262803437 1.2049805754095082 73 75 70
-0.3277956288551641 -0.0061755869908550 1.4052925776587233 66 54 54
-0.0507471586366062 0.0387474564016384 1.3146696869468453 146 141 138
-0.3508522786089827 -0.1532463268070073 1.2263083745584256 124 121 128
-0.3799937628976093 -0.0667941737095658 1.2919408787494375 43 45 44
-0.3094929279937225 -0.0672807721997365 1.3256247049734429 11 7 8
-0.3920177985832723 -0.0471970535630877 1.3502517071747753 27 27 25
-0.3445476924196249 -0.0581456788960354 1.3587037653358440 41 37 36
-0.0619305239707566 0.0096947437734396 1.3026854758522743 46 34 36
-0.0349745916175880 0.1695610310322989 1.2124583457728721 67 72 68
-0.2634159541980773 -0.0346159180356431 1.3925483761991191 57 45 47
-0.3324052643283564 -0.0084628408024701 1.3974019928157755 47 33 32
-0.0255901784333110 0.2583226316981452 1.1776366066080555 51 44 38
-0.0536406036829094 0.2500929645242401 1.2031931128369961 66 69 60
-0.0550829732883414 0.2585595934323260 1.2320250584904160 60 56 57
-0.3682532511986413 -0.0986227696007473 1.2971553039681372 15 14 12
-0.3885804736649675 -0.0639017364640361 1.2983831534065935 48 48 48
-0.3100698950213009 -0.1138861296041799 1.3008715384169258 62 56 58
-0.2566527864587653 -0.1071361881915860 1.2904532826388790 51 51 49
-0.2646907967352630 -0.0678079048651741 1.3453608790168554 25 21 18
-0.2945052259322891 -0.0544296080046595 1.3483418761552695 76 65 71
-0.0684328888043927 0.0146911670087433 1.2598799628362796 79 86 79
-0.3909187188940120 -0.0419270897442947 1.3874952037613990 17 16 14
-0.3526171665247737 -0.0351190156874974 1.3794678730518974 13 12 10
-0.0257345337185480 0.1272992580356956 1.2217776787518262 92 94 93
-0.3686789053522944 -0.0036992570679515 1.4242645758462422 126 125 131
-0.0569035327179734 0.2456444724118420 1.1952839377839968 70 77 69
-0.0486775997411228 0.2921759392384030 1.1842351094259560 47 39 28
-0.0436914867851706 0.2485495606408200 1.2471154169972523 75 66 59
-0.0679650336486561 0.3184732068678464 1.1912410170651804 33 35 34
-0.3813383585962577 -0.1486760555802941 1.2185974545547369 41 44 49
-0.3366037697472391 -0.0461324718514153 1.3877740720346954 43 46 51
-0.3013180411688786 -0.0325423492805054 1.4000498663725349 51 45 45
-0.0524128043832844 0.2200275435677628 1.1866196817390340 34 34 32
-0.3704485530625748 -0.0195068253800520 1.4124675437445486 17 15 16
-0.2263187652549573 -0.0912649244520536 1.3503123825415915 106 109 114
-0.2270532791089417 -0.0962935866264256 1.3639365226705726 26 17 20
-0.0633473519934376 0.3237652945901325 1.2248888504446667 68 58 48
-0.2643220826044798 -0.1056410969475524 1.2812590875296583 48 47 52
-0.0318260007661821 0.1859722454270277 1.2668945341881692 148 150 147
-0.0509374014080483 0.2545104867710470 1.2309452886371763 89 91 90
-0.0550457021304806 0.3082654899923869 1.2091357564782910 37 29 26
-0.0560583467804948 0.3095507288654503 1.2307936876094721 69 57 45
-0.0323055194955144 0.2079791865678500 1.2641562206809684 147 149 148
-0.0644981173747220 0.3036105557206084 1.1899299733974082 111 115 116
-0.0248755589820533 0.2824631857908074 1.1774645865346007 100 104 103
-0.0364774467554063 0.2412774505590993 1.1711190772640077 110 110 110
-0.2595679035156790 -0.0971651046793379 1.2984481513044652 37 35 40
-0.3386880586199450 -0.0623163054690263 1.3349238172305149 35 29 29
-0.3537218515080888 -0.0582462439617981 1.3407450279456712 22 14 12
-0.1043008230209416 -0.0480224344648570 1.2938882541076464 82 77 74
-0.0929097276650547 -0.0265925268031093 1.3413186105468549 85 71 60
-0.3628969347178644 -0.0941919338628597 1.3138057245575103 40 40 40
-0.2759568039938021 -0.0933000392687120 1.3134120495228352 12 10 11
-0.2525447537380582 -0.1017746383532865 1.3096691532843190 52 52 52
-0.3312281289764574 -0.0391074281349329 1.3930374137790122 33 38 41
-0.3112510374866528 -0.0446717815349787 1.3964660405073679 28 29 23
-0.2984246600571191 -0.1088220343861452 1.2714774107819533 31 29 30
-0.3787387754059173 -0.0522154083885152 1.3360708393035774 45 47 46
-0.3893061195539417 -0.0480899924844899 1.3415867491185922 36 27 32
-0.3758178540426744 -0.0379916181497160 1.3596850584631943 14 12 13
-0.1030720229257340 -0.0477711228224589 1.3068821223534448 28 23 20
-0.4179059497309014 -0.0683082966810074 1.2961276542946893 58 63 67
-0.3286706779899118 -0.0924032973046397 1.3336293737370821 49 38 44
-0.2752742568219306 -0.0639841434845469 1.3351160361958410 39 34 28
-0.2331259227636453 -0.0709334921602885 1.3757744661956801 43 37 39
-0.3491347555333790 -0.0126248373826136 1.3948094360912442 41 30 38
-0.0657001368111739 0.0086047014939969 1.3105937258059162 70 55 52
-0.3600620636373887 -0.1113964037993732 1.2587926972618864 34 33 38
-0.4179693532812475 -0.0673242031044243 1.2856243132100409 50 52 51
-0.4102880396176238 -0.0635965361254255 1.2954095164304913 52 58 58
-0.2632886585388898 -0.0982701868283945 1.2984801313028000 51 50 56
-0.3995993222962518 -0.0474589417997982 1.3468444383753804 36 35 33
-0.3700615406158895 -0.0439132286476847 1.3483516098022821 29 25 22
-0.3440798829208552 -0.0564447332470540 1.3579591052136974 41 37 36
-0.2587674065487006 -0.0687554271992112 1.3492620186806188 37 33 32
-0.2332009741211707 -0.0982378753941721 1.3564441760807329 37 22 25
-0.3847850233735196 -0.0378104193276077 1.3795928165295221 70 63 70
-0.3820015566811071 -0.0354533377275251 1.3877661226359657 27 25 28
-0.2866912277027375 -0.0473499407697550 1.3804142339806982 16 12 13
-0.3347014893119187 -0.0308153627526974 1.3956298019949507 43 37 39
-0.3892347743075389 -0.0128323547018137 1.4187845019418435 55 56 61
-0.4074419372524608 -0.0691509727256266 1.2808316769907937 31 30 28
-0.3424052674615702 -0.1097631595283509 1.2688799196609426 17 16 21
-0.4042533754615630 -0.0622473173193517 1.2970273899127740 53 48 52
-0.3099847506671847 -0.1140896265473730 1.3007631698037592 77 68 73
-0.3645689186871228 -0.0441859576722136 1.3550030093497838 20 18 19
-0.3699706475995079 -0.0343759444164432 1.3640117885501750 41 42 47
-0.3601846749022752 -0.0175367300395236 1.3919363363144386 59 44 49
-0.3808729351973343 -0.0259193229109823 1.4156625018925000 26 25 23
-0.3831734979204254 -0.0161922980927476 1.4108155248786864 75 63 65
-0.0398648152187161 0.0484922640158132 1.2853388773434864 51 36 33
-0.4002465256219628 -0.1260132591936200 1.2400027943739278 26 24 27
-0.3841391708547475 -0.0573143088561029 1.3175459622356884 42 43 45
-0.3210911402693271 -0.0814244249876082 1.3309981897829970 15 11 12
-0.4080471881090499 -0.0543805523710214 1.3737804675498255 105 110 113
-0.2455609616287548 -0.0949188905403533 1.3514740952099749 33 23 22
-0.2670199747011014 -0.0370825155185350 1.3915069328212308 39 29 30
-0.3877982458059896 -0.0453654112673925 1.3454292782651871 57 63 59
-0.0395247705862356 0.0507078180223169 1.2337960825571654 23 17 19
-0.0064369328695039 0.1575566142964666 1.1940503857422744 126 127 129
-0.0150602324451062 0.1864205315123103 1.1874370798985439 117 117 117
-0.2291359975947243 -0.0681620172038263 1.3845804835012652 51 45 45
-0.0357294484460244 0.1920324398261395 1.2450095484249784 36 31 27
-0.3737602002827821 -0.0911441979513121 1.2910412349834031 54 52 55
-0.3425728687960448 -0.0458780464239841 1.3823524881974678 16 12 13
-0.3294976564795632 -0.0631524262590158 1.3360692854849263 70 60 59
-0.4135493736558173 -0.1400106180679937 1.2237395020958171 126 129 134
-0.0319617646198013 0.0623924739792230 1.2422263730291485 145 143 146
-0.3690605784046683 -0.1214076421594002 1.2624776202592516 52 61 60
-0.0241898311738170 0.1765328917670859 1.1989644276042719 40 30 28
-0.3038920189420743 -0.1744697805793492 1.2294355400226593 27 27 29
-0.2522558243636738 -0.1036952026433814 1.2986127597920212 55 55 57
-0.3626818455112799 -0.0555166473533432 1.3373562133371679 31 27 24
-0.3905298507261237 -0.0423711835234895 1.3475400860444258 32 28 29
-0.3382573998802442 -0.1476888634633510 1.2634953395401680 15 14 22
-0.3875836733132396 -0.0642666245422696 1.3001794159069788 25 25 25
-0.3629320873930004 -0.0948260696459710 1.3121983728529918 13 12 10
-0.3970730015821796 -0.0546982020439811 1.3188525540165226 35 35 35
-0.2790799880131872 -0.0995222111882492 1.2933740207126636 93 83 91
-0.3745589213344726 -0.0504059554268440 1.3349536652061340 36 32 31
-0.3106254202097773 -0.0557679460530855 1.3284407196458714 62 52 53
-0.3779258545289206 -0.0358287704848772 1.3546443940906379 24 20 21
-0.0964834615531423 -0.0328155463414113 1.3255888675096603 97 90 82
-0.3718637413816867 -0.1178113439269194 1.2503234586117096 23 23 31
-0.3114566710291585 -0.1169858936006324 1.2903604544739864 69 67 72
-0.3931064556617627 -0.0550523560714612 1.3234220090027866 22 22 22
-0.2601131633200791 -0.0998598013855953 1.2928851821094214 68 69 71
-0.2603959804416360 -0.0946012579906661 1.3049746550768833 36 36 36
-0.3230163385803164 -0.0733611309872486 1.3320821987640004 71 62 63
-0.3644045080860236 -0.0358652645339649 1.3663094494234733 45 45 47
-0.0438994929891647 0.0467329264355297 1.2408662903233671 57 51 51
-0.0515891144794828 0.0371503672719439 1.2483464386956697 92 92 92
-0.2372669984867387 -0.0821373431074719 1.3738420970919987 17 11 13
-0.0645898105315193 0.0153993958206646 1.3075950209590084 31 17 14
-0.0693492561425480 0.0038385941818531 1.3321449029881058 152 143 144
-0.0420806317295022 0.0578612678331027 1.3010900802016248 85 71 60
-0.2930616863542412 -0.1157980762646887 1.2462285599745473 58 59 61
-0.2844151167272039 -0.1228987191191799 1.2549846538497420 63 58 62
-0.4006985041850358 -0.0625810492063116 1.2968243155664527 74 74 72
-0.3996762071430190 -0.0628727337376935 1.2967654180361083 46 50 51
-0.3778655528581495 -0.0618925408900125 1.2986482238866819 56 65 62
-0.3442716116109483 -0.0506909671168706 1.3385364460544433 69 57 59
-0.0838671084522848 -0.0073075576222197 1.2772155068916506 74 69 75
-0.3629187072464425 -0.0214382564640623 1.3802811544498770 43 37 39
-0.0402248975433102 0.0418969097010910 1.2660703016577615 49 45 44
-0.0911336935112089 -0.0151049673300075 1.3202793357386449 52 37 32
-0.2810178439794395 -0.0412907116482946 1.3902021350800309 37 32 29
-0.3580122472483409 -0.1308462618717106 1.2295759829851964 22 21 26
-0.3925051335040087 -0.0647402171599370 1.2997441805040901 51 55 54
-0.3280450902460533 -0.1114214811108911 1.2963899048858152 25 23 24
-0.3401261893042616 -0.0954453976489114 1.3021037004386156 45 44 52
-0.3844538506266721 -0.0593226599032646 1.3162511784126891 55 54 52
-0.3715957371194162 -0.0496921941233820 1.3339111480394386 63 55 53
-0.2580137107958000 -0.0920726553286859 1.3129150278908490 52 54 53
-0.3592655954519011 -0.0497731077587690 1.3457142393331776 41 40 36
-0.3116582104490603 -0.0554351452975875 1.3425148959804685 30 24 24
-0.3559678953907479 -0.0261415702066458 1.3844355496183021 15 9 9
-0.0940212340938978 -0.0524124647537960 1.3251418391002892 65 54 52
-0.0879465251819589 -0.0255486774716564 1.3189533783630281 19 14 11
-0.0486478158354767 0.0515870842852985 1.2945276145480749 72 63 56
-0.3591843282825380 -0.1476697831910599 1.2219118769166784 57 54 61
-0.3774552997862500 -0.0688469531903197 1.2892140601818824 24 20 17
-0.3263351614780309 -0.1081446321857082 1.3033868599352649 18 16 17
-0.2633094109884223 -0.0985243817719734 1.2987378347152105 64 68 69
-0.3467092536197568 -0.0254207743978373 1.3879820368003037 34 25 26
-0.0941272469630334 -0.0355923516318396 1.3251811244026221 74 65 60
-0.0938810529704545 -0.0301835334543385 1.3257709291514115 38 30 28
-0.0667175112551020 0.0186601339321544 1.3111916359898899 73 58 51
-0.3612754382048431 -0.1094774451537412 1.2645153712008761 48 54 54
-0.2687700128959709 -0.1212996972025574 1.2869353937369419 54 49 53
-0.3602967612164841 -0.0556490151892407 1.3384586251584347 46 42 41
-0.3627876196365256 -0.0482620342756023 1.3429172893484524 29 26 21
-0.0968640928547363 -0.0551236898440259 1.3212415475072972 55 45 46
-0.2886841264612132 -0.1031404572393120 1.2948950738589426 74 69 75
-0.3420883306534580 -0.0566297598358163 1.3518464009472944 22 18 15
-0.3574477537907048 -0.0293844110217849 1.3748236668991662 33 27 31
-0.0550337347516449 0.0265873575163663 1.3157655627661498 68 54 45
-0.3481277122218793 -0.1352535191035077 1.2557535831937294 26 23 30
-0.3580185400085237 -0.0882627335574853 1.3272866481606962 30 28 33
-0.3883882105801117 -0.0467175161435808 1.3463234400207091 95 94 90
-0.4007317815331031 -0.0318994639731201 1.4138479634773518 37 28 31
-0.3484828409591121 -0.0115466455123159 1.3892762511019507 66 51 58
-0.4027164560818385 -0.0537743606513302 1.3602009412028229 25 23 26
-0.3426526400798049 -0.0567427190516919 1.3484362813249866 18 13 10
-0.3642089061555253 -0.1255482788286160 1.2791909187474684 48 46 51
0.2059621366424851 -0.1180590638128226 1.2755169341022397 143 139 138
-0.0393487689018966 0.0538995782441630 1.2368629422575446 67 66 62
-0.0697959637786653 0.0126212062293809 1.2562254850922083 113 109 108
-0.0235579144988822 0.1254137302733587 1.2273879509452055 128 129 131
-0.0654162167644162 0.0144778745595252 1.3090097413023349 42 33 28
-0.0663914990678092 0.0200092339889440 1.3082207871781897 71 57 54
-0.0285832048153922 0.1294585215754621 1.2164966011803537 81 81 81
-0.0363888440327682 0.1603460082837671 1.2076975162227797 98 94 91
-0.0351638274720796 0.1596170856304961 1.2099828512382758 85 86 88
0.1991528763428886 -0.1070488589216352 1.2745466225996018 80 76 77
-0.0427236566524139 0.0447005126547727 1.2645715513986149 35 31 28
-0.0422397983923580 0.0439628213648928 1.2650781060693070 54 44 45
-0.0375511808766519 0.1665583875874605 1.2041806352699091 34 23 21
-0.0498563575889527 0.2239983187639543 1.2027598336915175 99 103 102
-0.0131458487756711 0.1323104926091112 1.1828379882917504 150 149 147
-0.0582296278526992 0.2492110949441143 1.1924474311568380 47 48 42
0.0062057241309709 0.0464413186721280 1.2783532912091060 183 183 185
-0.0291116846455180 0.2623754999578063 1.1725539573041899 45 44 40
-0.0461998127017721 0.2162954642199398 1.1623436776498035 44 33 37
-0.0437590027725044 0.2155855848471560 1.1622554664371352 44 33 37
-0.0406192924882810 0.1810940374018443 1.2052664804034323 35 25 23
-0.0546297356573168 0.2376220804428727 1.1869022453268685 98 109 101
-0.0305575181270994 0.2062054545592132 1.2476511288456242 62 49 41
-0.0459678608424403 0.2459004923798133 1.1808081991900599 51 42 37
-0.3033423716031063 -0.1197619397706084 1.2413846225994547 60 54 54
-0.2968890930948087 -0.1171184985897828 1.2446549061019796 71 71 71
-0.3747354797494203 -0.1060943801352565 1.2700547337943084 77 77 77
-0.3595625162555566 -0.1078104891513587 1.2679504818609637 81 85 86
-0.2954170593598245 -0.1098742399916485 1.2543837339553359 42 38 35
-0.2790834270485520 -0.0937005678503516 1.3150325691073810 67 61 61
-0.2770863022132068 -0.0676978966611982 1.3219725512768776 88 84 73
-0.3424677086578310 -0.0597078758471163 1.3418879914529005 65 57 55
-0.3107700762549624 -0.0541066135994606 1.3504172236539631 28 17 23
-0.3315510180116255 -0.0484248845340141 1.3883339591261761 48 49 41
-0.3101131585486523 -0.1417746089767340 1.2027039393494316 157 158 160
-0.3678227410978037 -0.0975955968957039 1.3006284966881019 65 65 65
-0.3770595331149927 -0.0624132112314056 1.3023284219958802 49 55 53
-0.3847673183136622 -0.0622914158070266 1.3060859509336695 66 62 63
-0.2592695414553982 -0.1004987708392852 1.2881145140987678 84 84 86
-0.3009881246678290 -0.1132673834361506 1.3056205110466721 65 56 59
-0.2757671114746049 -0.0962390356035158 1.3034629234240402 77 77 75
-0.3017872591797104 -0.0596202221820206 1.3265323129143145 71 60 64
-0.2677960839776336 -0.0703293973088448 1.3206631446153607 81 77 66
-0.3128353613126740 -0.0569982244399423 1.3311179170882561 95 86 87
-0.3441016987945850 -0.0581166168152899 1.3560818786362858 34 21 28
-0.3618247347829143 -0.0161056169226398 1.3906402342275097 67 46 51
-0.3020104741279784 -0.1184663127949878 1.2429517507817620 36 32 33
-0.2601410060305771 -0.0985865038337920 1.2839961941950264 120 120 122
-0.4067933393058558 -0.0553556492246901 1.3289844840115461 92 77 80
-0.3941456003685053 -0.0508786050273096 1.3357685164890647 78 69 70
-0.3688143174615885 -0.0449411482000588 1.3405499164426302 60 49 47
-0.2814893086098944 -0.0485004404535777 1.3269768986634369 32 22 20
-0.3552788711267554 -0.1051801852599505 1.2728586189014228 53 57 60
-0.4041166091513491 -0.0616491755336202 1.2988903537287864 40 42 37
-0.2910405913723674 -0.1074487804875370 1.2749632624588700 60 54 58
-0.2841503285858727 -0.0979281514675296 1.2975925456539312 51 47 48
-0.3966417997882557 -0.0475205185895354 1.3402059833839104 52 42 43
-0.2502088152194120 -0.0849474090720009 1.3200898256063383 73 65 62
-0.3748220443966478 -0.0340800976571668 1.3629184253698186 52 43 48
-0.2671594951685346 -0.0629640579011352 1.3637034803653807 25 17 15
-0.3673711161985358 -0.0293857698537993 1.3820678261756172 36 24 28
-0.3377493889382107 -0.0426111306966775 1.3921535343856035 63 65 60
-0.3911264419597719 -0.0641567706923014 1.2945201568553200 73 75 72
-0.3963503716869613 -0.0579418984544995 1.3143810257446598 68 68 70
-0.3942275191769898 -0.0574979134275932 1.3172670724842794 33 34 36
-0.2721554839292223 -0.1014091519121781 1.2912747660922181 82 77 81
-0.3940812919485807 -0.0563711146905198 1.3209325978202162 65 63 64
-0.2680297939601469 -0.0745636629671156 1.3250961140767752 29 24 21
-0.3486758464606620 -0.0584744615497190 1.3512278952500738 51 39 39
-0.1106958959496789 -0.0599973321605901 1.3060271993599699 73 69 70
-0.3675306236020687 -0.0295602201945783 1.3678525513003408 57 48 53
-0.3730635967453557 -0.0334937746101203 1.3902320314123364 58 49 52
-0.2917913812575672 -0.0382522099281818 1.3880042610384977 78 68 67
-0.4215772109056345 -0.0721678784767706 1.2858829864470074 49 39 40
-0.3233255601120931 -0.1139864237440158 1.2957392944219361 38 29 32
-0.3877575337706637 -0.0597429559591935 1.3073082652821124 69 71 70
-0.3948263917856224 -0.0589349797763788 1.3104270877012230 76 77 72
-0.2832223819847807 -0.1015903862101648 1.2862418023287541 76 65 73
-0.2831427974015276 -0.1026274926817006 1.2865231432488928 76 65 73
-0.3146519012947686 -0.1129091977785137 1.3067533155226827 50 45 51
-0.3443944769562277 -0.0940561930661345 1.3188763316916321 45 36 41
-0.3914444373937884 -0.0543838086486432 1.3296287346638560 74 63 67
-0.3862419532442867 -0.0409697074488075 1.3524256935034782 55 41 40
-0.2733558100609372 -0.0631755704253166 1.3379270920896797 82 74 72
-0.3321002971817295 -0.0294989732930904 1.3979248923469643 26 20 22
-0.3064476826085623 -0.0312718586529681 1.4035710759970643 69 59 57
-0.4164724743095953 -0.0660627082672480 1.3022053164018521 59 49 57
-0.4003896798734368 -0.0576140008891484 1.3136841024760881 61 52 55
-0.3726090064430616 -0.0572633351828982 1.3158389649046325 46 45 43
-0.3334972397718860 -0.0947968850642166 1.3138463325806291 79 75 76
-0.2425580913489337 -0.0861295212551019 1.3246710630734329 65 55 54
-0.0914569766770722 -0.0660446243430180 1.3553923683724167 177 175 176
-0.2166106260878817 -0.0807703190861789 1.4002718254077324 55 43 47
-0.3769646484432903 -0.0137457538086777 1.4126063012497339 56 45 43
-0.4132052666920473 -0.0678233117287469 1.2803549123257822 85 81 80
-0.3423064950390655 -0.0577437301746331 1.3516440759505093 40 30 29
-0.3055691585976417 -0.1481571262598327 1.2074907292555179 80 83 90
-0.2476694598874702 -0.0672544844782212 1.3708781835975723 25 16 21
-0.3501219192559592 -0.0033083104862978 1.4131100411333974 57 48 49
-0.4211239325002097 -0.1097283332507064 1.4211406391615879 169 163 163
-0.2646743695024449 -0.0923850848174898 1.3045798907347461 50 49 55
-0.3295713950124749 -0.0505152572633227 1.3510310237074683 13 4 7
-0.3739344751302099 -0.0505606821194151 1.3373082529527154 98 94 91
-0.3756397611569632 -0.0464369320966066 1.3363020305323883 98 94 91
-0.3907257972226904 -0.0478702586424966 1.3478145849370404 75 74 70
-0.3732960736352486 -0.0412408820590233 1.3453775814563709 44 32 34
-0.3738335561243017 -0.0436952093569286 1.3488382312869573 56 46 47
-0.3533697314767230 -0.0240611695216727 1.3851100136935037 70 49 56
-0.3151397156294916 -0.0369092540521455 1.3980214806307787 49 51 50
-0.2791275326419662 -0.0276736241080415 1.3940439633021149 68 56 60
-0.2838458496362197 -0.0270597080999657 1.3952140776611248 70 55 58
-0.3791625530286429 -0.0057326556484524 1.4167574587808196 73 67 71
-0.3810670445332514 0.0008774419466950 1.4194103138589584 81 70 76
-0.3880864727196398 0.0007187726701920 1.4235741194203764 53 36 42
-0.3953003831478091 -0.1459617173879596 1.2155614329883431 50 54 55
-0.3832160300398677 -0.1464462121366451 1.2187281927824885 57 58 60
-0.3155758886081264 -0.1131879679023459 1.3028170942362407 28 23 20
-0.3138118585418023 -0.1114265829450025 1.3067754289091360 58 52 56
-0.3980238529831313 -0.0448969568156698 1.3470978431087597 47 40 34
-0.3924545356668268 -0.0471424529753193 1.3849025575833525 54 48 50
-0.6721786224570400 0.1422194751699640 1.4142318446894584 33 25 23
-0.3592962874743839 -0.0178470680491184 1.3911233677800814 70 51 55
-0.2819978759712023 -0.0436181649733904 1.3855512866613766 58 50 47
-0.3636934568864368 -0.1166855084235631 1.2545467786515765 68 67 75
-0.3312301933012496 -0.1030549297400153 1.2950271237324746 59 53 55
-0.3904753003726397 -0.0415050263919517 1.3631470129241314 32 26 26
-0.2393928962744978 -0.0702016313890041 1.3726110131347475 74 66 64
