ply
format ascii 1.0
element vertex 697
property double x
property double y
property double z
property uchar red
property uchar green
property uchar blue
end_header
0.4305092774882204 0.0422264896344476 1.1461339436273001 173 168 149
-0.2089629586318793 0.1497572680957109 0.7776395167553742 122 123 117
0.4197118036754332 0.0080846434099482 1.1483116034000744 99 84 81
-0.2179514728557578 -0.0847760277866526 0.8135526508578541 159 141 117
0.1715355714730488 0.0326884687535757 1.1791920613963012 175 171 168
0.0613283631514590 0.1949826273845124 1.0585115221662802 97 132 164
0.2146376444979641 0.2746790823873698 1.0996621645043683 45 48 65
0.1717240384810299 0.2093096102611414 1.1406234579800754 132 147 144
0.5200090634215541 0.0032407866563249 1.1969346116333497 40 51 47
-0.1692447019975713 0.0580359565497719 0.8446781393280605 154 159 162
-0.0595813058881671 -0.0392190941649439 1.0606224402042805 110 135 165
-0.1747447116293061 0.1186687863202515 0.8026685586740975 148 136 120
0.5781027871075745 0.0919660520100691 1.1824081995515618 46 42 163
-0.2001555303069986 -0.0833062099233368 0.8229181323898033 156 150 118
0.4494550048633251 -0.0439088832544934 1.1852838932722183 64 101 153
-0.2514530313893918 0.0195720172995553 0.7787400889009796 135 144 143
-0.2945290285564574 -0.0958339074354703 0.7820788048208988 131 141 151
0.3845092496378515 0.1086348330377393 1.1056406683091076 189 180 165
-0.2012819029040627 0.0342741399698298 0.9111058887918212 156 163 156
0.1880833485175420 -0.0106363985224822 1.1897975781385139 134 156 177
0.1506425551842546 -0.0039671317409404 1.1723410147214370 113 100 94
-0.1581238335537871 -0.0722719632694161 1.0374750378367710 89 107 147
-0.1753448831464942 0.0797606174290687 0.8118726864510890 141 125 135
0.3541854299301402 0.2009607817604089 0.7466608878273514 91 99 112
-0.1184197787365056 -0.0793866372832522 1.0741610254953411 73 80 99
-0.2227216911008508 0.1940244878070391 0.9284119736242906 124 136 148
-0.2785809307084255 -0.0916827300840617 0.7840234462820821 151 140 134
-0.0948655393116224 -0.2320641586862335 1.1637860299032339 255 255 255
0.1652416194258749 -0.1218598000145120 1.3567437744337794 67 86 126
-0.2251218219693878 -0.0202218087050600 0.9742443635781137 199 198 193
0.0886465331203657 0.2256337620305055 0.9785969693149955 40 59 76
0.0465410265682058 0.2041284946342300 1.0492123399656434 81 77 91
0.1127885370218150 0.2470434201164563 1.0609581272226278 90 108 122
-0.3090734147373632 -0.2495868697826132 1.0558801859728644 173 174 192
0.4550120206928978 -0.0483717619266053 1.1832979827279622 107 96 76
-0.1637071135536250 0.0336245072790319 0.8302504459564779 128 132 133
-0.1116019859738556 -0.1059475505713367 1.1079487082860795 124 157 188
0.1961530268738065 -0.0455890800088640 1.2105310951899795 113 102 96
0.4524512338831491 0.0564287592974738 1.1674552892553938 47 64 92
0.0063183101438217 0.1872074580782004 0.9395053416363921 120 127 135
0.0711061580788379 0.0802025100845722 1.0794847973737414 71 80 97
-0.2649444938127093 -0.0338223004926862 0.7890189407632497 157 162 165
-0.2891621930926866 -0.0093000084604796 0.7702064836637856 120 126 124
-0.2276182499948161 0.1413798664565866 0.7732202121432304 49 55 103
-0.1530889424200744 0.0404197434395338 1.0028937670322193 100 90 101
0.4726312369919921 -0.0018116918441489 1.1700387002800001 159 163 130
0.2820330029829448 0.1738686534115843 1.2182397409091015 10 9 17
-0.1163129023131323 -0.0821207291489424 1.0739458165892857 144 152 154
0.1614746070847591 -0.0136868412879525 1.1687572169364735 136 161 183
0.3592661545114354 0.2598346932421116 1.1147411512828587 27 37 49
0.1818958920223783 0.0007533899400948 1.1836831292503742 174 168 146
-0.2339625267059223 -0.1418968636836643 0.8296216625451006 98 91 98
-1.6803304925013691 0.4612782639657604 3.1229860398522811 37 44 52
0.1851506357661181 0.0346973532426470 1.1868159712953936 165 173 158
0.2120865487849199 0.0974335344529660 1.1947097572036607 112 139 160
-0.2611534304304370 0.0936770193099667 0.7626238021608407 164 158 144
-0.2186958662177913 -0.0136741366882178 0.8132535739283588 69 103 141
0.1292478555729659 -0.0536834502620854 1.1759582702473588 91 81 71
-0.0256878547120512 0.0198886407618758 1.0622168605848812 114 100 100
-0.1976449872040762 0.0896713783859644 0.8898192471852682 82 78 92
-0.1938039269157907 0.0987256178821960 0.7991674851579212 106 99 115
-0.2052592105639750 -0.0275738161980220 0.8194670707715646 159 150 145
-0.1569707046741889 0.1750209435434166 0.8024065943851351 58 70 86
-0.2722548380510149 0.0386030987897544 0.7701405748431737 86 74 78
-0.2741826096284674 -0.1474973142725365 1.0688633047424676 152 166 175
-0.2054807610896590 -0.0275705631513252 0.8198049881687426 159 150 145
-0.1938039269157907 0.0987256178821960 0.7991674851579212 106 99 115
0.4872668786029382 -0.0432579311672840 1.2134994438795272 130 154 156
0.0641028722922439 0.1627848345056977 1.0652615733043251 99 85 85
-0.0425504179569074 -0.0394326769433355 1.0789312244903428 11 42 71
0.4797073483720592 0.1690541892405176 1.1466381254209006 67 70 61
0.3806677890421195 -0.0263929781659283 1.1335168548578076 216 215 221
0.2378715714766887 0.1687296931670391 1.1856920987165618 134 143 140
0.4796667766566742 0.0938584831103543 1.1600119850596589 109 94 91
0.0877587643687512 0.2207125113491836 1.0173329493539758 112 130 150
0.0113020403697686 0.1770108269484395 1.0291783297295527 121 117 114
0.4454867147570350 0.2138109129461127 1.1174088520919190 19 21 78
0.4528423042272156 0.2531711852319709 1.1089475072083803 130 140 142
-0.0939321974687369 0.1926589776520037 1.0019726328734060 70 65 71
-0.2035378248045304 -0.0901235121815490 0.9432918717811739 165 174 173
0.4339240540689219 0.1933756441515842 1.1212924527703614 22 27 46
-0.3205937248034489 0.2106505297720884 1.1043109468457291 83 93 105
0.4003274390335138 0.0415446375352692 1.1304571795173435 112 86 87
0.5763968479525409 0.1628404187153270 1.1618999854902461 64 61 118
0.1273100611993823 0.2066967952949565 1.1162930722214068 120 123 114
0.4452643935618161 0.0444350733604962 1.1571684226209862 96 109 141
0.2768435632923707 0.0546541439794678 1.2395540477628977 0 32 40
-0.0615043550897234 -0.2227549538954335 1.2318253946921118 199 199 199
0.2998738757977397 -0.1252949153241118 1.4755993699070018 109 82 161
0.4108508957423794 -0.1475637466530680 1.2512165689722852 122 146 172
-0.0114462387370271 -0.1194985553900958 1.1403826898136074 146 172 205
0.0935160500392760 -0.0400170242625670 1.1203379307993147 81 90 105
0.2801906011936739 -0.1598996179800332 1.3717031344148707 139 146 162
-0.1669479160283973 -0.0266570665903878 0.8582363196824574 108 104 118
0.3922994645440082 -0.0482623039496233 1.1567251048910721 135 155 190
0.2307909115389768 0.1863158686679421 1.1798152184312620 126 128 125
-0.0405921955440679 -0.1829150128268222 1.2051969029105423 50 55 77
0.0648900375050743 0.1528679735650415 1.0648775756258808 82 97 128
0.2788745523349067 -0.0540805728427594 1.2596168940524171 120 120 110
-0.1940552905044523 0.0965041080058711 0.9650101929275119 134 123 127
0.2998738757977397 -0.1252949153241118 1.4755993699070018 109 82 161
0.4061542353401744 0.0375523442988692 1.1332282391941528 158 160 139
-0.0042221237910328 -0.1889309723519708 1.2191054788850486 111 132 159
0.2824311620142740 -0.1175109688680330 1.3651733445649079 100 97 124
-0.0253128743782415 0.1628739074715942 1.0308197580657961 67 62 69
-0.2728458716017648 -0.2305772577727525 0.9566389311090746 141 162 193
0.2054344466777906 0.1158689159489942 1.1760892592003918 145 147 146
0.1916195878139310 -0.1584477039067160 1.3556912986153078 67 93 128
0.4855545982640944 0.2228095008264595 1.1377466598735502 90 75 70
0.2305122371404210 -0.0728923257215711 1.2873764019182314 20 45 65
0.4533964220977830 -0.0886806444096204 1.2306739520193832 91 109 129
-0.1705038145100055 -0.0247109445038988 0.8634604487531695 174 172 175
0.4295632192378475 -0.0498473052089719 1.1664084574364335 153 148 128
0.0920476644390364 -0.0957898249833312 1.2159816893570659 19 51 62
0.0559944120532368 0.0304138829582826 1.0901414183739946 89 113 149
0.4553488953306317 -0.1035406530800152 1.2412930711153103 192 253 255
-0.2102303081498036 -0.0228395284517146 0.9812436082559909 124 125 109
0.2944863850769981 -0.0006842801051919 1.2546961394088720 28 60 83
0.0132184148196209 0.2166944415323801 0.9340988338028383 18 31 66
0.0038615102760625 -0.0273327435978547 1.0582332293432182 189 195 183
-0.2271282738118553 0.1736387052715755 0.9288518891616196 74 76 91
-0.1999491002328690 -0.0288593314375537 0.9228286390658585 163 165 154
0.4977640567241154 0.1136569800435378 1.1608384786096564 125 124 120
0.4229373731401275 -0.1423144272303822 1.2566793255220106 43 59 92
0.2829354655169682 -0.1282695987251078 1.3655149934605006 103 107 134
-0.0748824182382300 0.1054727943834962 1.0277911680921195 151 156 149
0.2335706550767325 -0.0651214096938740 1.2836791110834833 125 137 161
-0.2866088209649238 -0.0945971243020951 0.7797768259006140 166 159 143
0.4597932664101823 -0.0870613489292630 1.2327690254196770 127 164 157
0.4475105539760368 0.1080918458811556 1.1351020687664501 119 119 117
-0.2126680737877555 -0.1237317123730429 0.8326201852710857 139 143 155
0.2533995863323054 -0.1660167302815214 1.4253114990033799 251 243 232
-0.2232948215868351 0.1848001299560319 0.9322939806377077 82 80 93
-0.1717108228076235 0.0814397117615120 0.8140007720099843 165 157 144
-0.4311658093546761 0.1912408749131237 0.7579317010904419 190 184 184
-0.1679708648922577 0.1652547360494344 0.8214547101846295 128 122 132
0.3037506455494536 0.1536535363189962 1.2239514512782079 40 51 45
-0.1714859216172500 0.1275994312062261 0.8323088501587221 114 126 126
0.1897412081170064 0.1141000392110536 1.1667872436943141 124 121 130
-0.1276496461178924 0.0265365456783395 1.0284381210710960 101 124 158
-0.1932217519657504 -0.0774522810588342 1.0117594821886622 136 167 187
-0.0788490992958436 -0.0080431751033857 1.0531485259642237 153 149 140
-0.1680551199304682 0.0722848219559807 0.8363273313477414 113 101 115
0.4511132123556941 -0.0048558631310980 1.1612662026070382 123 97 84
0.4649212051284234 -0.0168865324299221 1.1798068154886021 57 73 99
-0.1188532814475761 -0.0345190896620143 1.0301872273030346 112 104 101
0.3973520254102971 0.0335952935762878 1.1294967444036061 102 77 83
-0.0999702477464802 -0.1954398205063557 1.2056316229659105 173 176 185
0.4077122647399302 0.1473379446724560 1.1116420608294462 108 94 94
-0.1829166081074849 -0.0424383788769112 0.8973587410316801 114 114 112
-0.1720819924716436 -0.0991251429418081 0.8627930648387246 91 115 159
-0.1966421008913670 0.1536777779108935 0.7844706400617454 121 105 106
-0.1915616539663689 0.1646739547691538 0.8603050820321196 116 124 126
0.4654366166249504 -0.0073813284925973 1.1667812324473759 152 141 119
-0.0836647469436649 0.0975837662628829 1.0262578031433172 131 128 123
-0.1864134886107324 0.0053881591862174 0.9959086004467826 72 78 92
-0.1094436625918682 0.0732892635909882 1.0177142812629221 142 143 137
0.3153730093391936 0.0865292611359424 1.2376368300954965 54 52 65
-0.0821992261706614 0.0231031679142729 1.0451851974397861 184 180 179
-0.1956529733345729 0.0145753111200627 0.9920343199759554 120 138 162
-0.2055468240420924 0.0022482837769614 0.9933630544750714 56 72 98
0.1706523530589404 0.1559709747315295 1.1527156752925363 80 69 85
-0.2647382897218454 0.1038279801594608 0.7571829296656469 133 128 132
0.1034988072898587 0.2311562067257741 0.9727282170868234 44 53 70
0.2394533790619504 0.0063795487076499 1.2171177081132867 75 72 57
-0.1820603043402654 -0.0458928943557268 0.9953701802642523 146 135 113
0.0010173646502117 -0.0074367223290989 1.0602284316198820 106 105 103
0.1167824102245804 0.0814478423938881 1.1060539882942830 167 172 176
0.3026321380592814 0.0658835048637455 1.2428687626399271 111 112 114
0.3984421342873486 0.1414769521154264 1.1070089877555236 81 76 80
-0.2887644941938909 0.1007121033029379 1.2790097179318562 127 132 138
0.4941854316969798 0.1267395445221064 1.1608554628336942 92 78 69
0.1207407915071216 -0.0256468494650123 1.1227870042597767 151 173 197
0.2376517727602458 0.0227134309247457 1.2190145197583750 97 81 82
-0.1010447256425278 0.0940648707627234 1.0195530415778462 68 62 62
0.3569171054829960 0.0004846545569387 1.1668691124739830 113 93 82
0.3812083378876936 0.2375704163737357 1.0813031999816645 46 42 56
-0.2775997605289293 -0.2281865481183858 0.9657748631477417 128 138 174
0.2627985965634843 -0.0444843253492690 1.2461129407135625 151 145 123
-0.1825673394598928 0.1908796977787286 0.9580845421813330 42 63 84
-0.0091279792517035 -0.0787741358554702 1.1011166354185902 146 170 196
0.3955493379062639 0.1485780591747016 1.1039212773326506 101 88 98
-0.1747952867754303 0.1242990805509722 0.9749830293726195 121 121 123
-0.2321800603325822 0.0852032817512828 0.7868269928927714 44 57 74
-0.0225867846860639 -0.2670515873017389 1.2646349724584274 255 255 255
0.2069359990708249 0.2478592372712103 1.0992868050006241 86 89 106
-0.2761870835145363 -0.0067444149431968 0.7761659517793799 149 159 148
-0.2527534821954487 -0.0032663668619259 0.7890371141781612 162 156 166
-0.4326725653517621 0.1941094714382578 0.7560591809812314 197 192 196
0.0396806478320822 0.1937372869310034 1.0469804022993243 73 69 44
0.2627847319392975 0.0489807370681348 1.2286133374244463 84 74 82
-0.0269524098836729 0.0356704524408657 1.0614086538512590 105 92 84
-0.1984799727611196 0.0272142154255878 0.9069387339715447 169 163 167
0.2826010770700146 -0.1154984139906332 1.3641471157279339 64 65 93
0.1577066205889241 -0.0270896245055307 1.1886596514458860 181 177 174
0.0653500304160960 -0.2210767103291804 1.2729055603298176 48 58 70
0.2612432945035184 0.0307015221547139 1.2251573563955209 148 146 131
-0.1967695712145942 -0.0053256590769611 0.9101777818673606 106 101 108
-0.0737333999168631 -0.0407464494625379 1.0522600956878743 150 172 193
-0.0558393119348768 0.2383794151690499 1.0168733780205763 32 33 53
-0.0968398441069701 0.1080691028783162 1.0181431850315845 70 69 64
0.3564755857497933 0.1354108120635359 1.1409326620887850 105 96 101
-0.1638252160127295 0.0334889840568019 0.8297700326578638 182 179 174
-0.0549239999784886 -0.2159394452163196 1.2022502618681066 65 53 75
-0.2645141606915969 -0.0011022765006674 0.7820301976613172 149 151 140
-0.2751752526063014 -0.0736344201155769 0.7977870256751578 138 118 120
0.4205512103556280 0.0224681950970906 1.1459277874765164 85 74 78
0.1512738485025003 0.2405807461283635 0.9393132479360953 45 59 72
-0.1733073638965221 0.1163835835012446 0.8034526797761868 82 71 77
-0.2885331135327087 -0.0416018857481253 0.7771349435260576 143 157 168
0.5144419854238770 0.1366386458436664 1.1699144773526038 119 119 121
0.3648224375222598 0.0044040697657416 1.1594207732741570 255 247 208
0.5126138790322268 0.3035800271687495 1.2316575073245681 73 75 74
-0.2520236249787859 -0.0372685291104633 0.7963949842641289 85 72 89
-0.2710922474490829 -0.1338359213730846 1.0680288151210611 41 57 73
0.0477865469013617 0.0543271043269064 0.7981518457118404 72 82 107
0.2215135035166251 -0.0434940556401736 1.2488199711500125 104 93 97
-0.1872693547454334 -0.0668964165353153 0.8377753514726621 122 101 100
-0.2064329871396296 -0.0794513925251822 0.8209612820384118 159 152 133
0.4258073290492099 -0.0082218983815576 1.1489122604471511 106 90 65
0.0402501300762899 -0.0323390755335982 1.0818164396192071 58 78 102
-0.0735196907816144 0.0781900448744781 1.0356505508055354 56 69 88
-0.1953172727356356 0.1671048205458606 0.8690890647133682 100 105 108
-0.1787334402163949 -0.0239084716150586 0.8323633290444217 110 109 125
-0.2911136480793826 0.1536382939381521 0.7328889728790695 204 193 207
-0.0352737981413904 0.0430171645043698 1.0646656553011906 130 125 121
0.4805011023081378 0.1930356551556166 1.1408878305356245 62 62 52
0.5790222250901100 0.0943520237942763 1.1768083389678163 49 40 133
0.4997601618605202 0.1981777702557318 1.1499357174197402 98 109 105
0.4215604131114838 0.2053307461141855 1.1058501917447636 154 155 147
0.2925075757928002 0.1081656954722192 1.2261761747801763 62 63 83
-0.2222384109952842 0.0420108517298902 0.9495294639663778 104 112 114
0.0041210324227410 -0.2269531993076159 1.2774463331286154 67 69 118
-0.4068456726023092 0.1826515328399981 0.7815321324504370 88 90 102
-0.1735783946110625 0.0280397991907765 0.9955930088354071 129 118 112
0.3885755486780878 0.1858395676101583 1.0928628665561053 158 162 163
-0.2525167495020537 -0.0027381959158064 0.7887408209358847 147 149 148
-0.1615719272633333 -0.0670415239935022 1.0254452664905149 28 51 69
0.2630131465705654 0.0658098447879294 1.2244816380343793 76 82 94
-0.1901879331630818 0.1105690871746078 0.7965429734117389 133 114 97
0.5112710385830246 0.1270553410305073 1.1744126433073374 88 90 77
-0.1773718516032988 -0.0903662306028163 1.0273491298315138 86 87 91
0.1853681449575680 0.0704413022184217 1.1788678469850182 132 143 129
0.4203794156640820 0.0895012010438386 1.1306087371825180 158 154 125
0.1883463555446777 -0.0169931875122505 1.2012357780392453 76 80 92
0.2235404172701691 0.1167201923526835 1.1868064038213049 127 128 132
0.3158626075838116 0.0332538228032652 1.2425961546909821 107 106 112
0.1531885090151258 -0.0478296554744495 1.2140261776504415 59 66 85
0.1140046989548859 0.0215473236417469 1.1524420462084688 115 92 98
0.0426279837380240 -0.0364184974856520 1.0910332349868817 166 174 176
-0.1683530710392256 0.0968157137956467 0.8331645821125486 123 115 128
0.4508554026180315 0.2484260208078148 1.1087999255740022 106 109 114
0.3035400964530185 0.1634470643397348 1.2210880673541984 103 100 109
0.3324500475157333 -0.1643943382936996 1.4019888583248370 151 153 168
-0.2190664541112180 0.0569304084945971 0.9454061019566635 104 98 112
0.0600274853863263 -0.2170970379689019 1.2634284746990716 255 255 255
0.1979394809786810 -0.0425021133473375 1.2111409798145722 141 137 126
0.3481337605220804 0.0684922893518210 1.1801608152729461 146 146 138
-0.2758167377064819 0.0775639698655572 0.7545809190189006 139 145 143
0.3540257708291391 0.0329447361425621 1.1698802305613691 150 152 149
-0.3688634304321238 -0.2259624599390312 1.1358052876490838 82 94 136
0.1908528530216209 0.0526553829172024 1.1852905530271916 164 154 145
0.2824957830895305 -0.1303972340777031 1.3683227006952152 77 90 107
0.1654080527985318 0.2117434079975840 1.1374324663981250 128 127 123
-0.1980893649328492 -0.1124687076947177 0.9260911448779577 150 151 155
-0.1624569196829328 0.0174951682533675 0.8304739203404808 189 193 194
0.4854194071685689 0.0514111371155127 1.1746076419391343 174 174 166
-0.2112271226860091 0.1966542978615070 0.8995456252930806 37 43 59
0.2442059413718027 0.0524858114337770 1.2137363269525250 106 80 83
0.3367125981352927 0.1531855089784037 1.1748195043210869 113 121 124
-0.1780764332561539 -0.0934024692717203 0.8835275953171083 49 63 89
-0.2533269289414747 0.1431329099759958 0.7566224932674097 193 189 177
0.2855594985724325 -0.1827679453642149 1.3758254953060314 28 53 50
-0.1780803111184756 0.0819308954574113 0.8100755355475130 114 84 82
-0.2264863439153623 0.1379578139750254 0.7741405368476567 124 119 175
0.2365913869991705 0.1548633930211258 1.1878087669105011 126 131 124
0.0495239230661250 -0.2039172508150479 1.3161824311367680 185 185 177
0.0424961449753437 0.1092503319003427 1.0457673497831796 171 173 162
0.1850092512038682 0.1706907353816509 1.1570096386165478 115 100 107
-0.0507416522333551 -0.2318650592989081 1.2044616469906360 99 96 103
0.0672768677027912 -0.2009565550313943 1.2650192485175646 101 97 120
0.2849571652994681 -0.1469429138641145 1.3709160770570796 165 161 160
-0.2629955940464787 -0.2377998163820421 0.9147329525633069 254 253 251
-0.2708813290106678 -0.1901740384178148 1.0803115622416157 62 70 91
0.3887993537904550 0.2682358116938646 1.0662720240561328 65 72 90
0.1066185860028570 -0.0504279752423977 1.1422567997037774 76 92 125
-0.2600324874856807 0.0910700913170017 0.7649425801251770 48 51 32
-0.3704120710697075 -0.2038969642507675 1.1350184762119959 128 115 195
-0.0957932014662782 -0.0598945237546524 1.0602551249175893 47 61 90
0.4951207837869805 0.1887992484775133 1.1487326238354389 74 62 62
0.5803477292959210 0.1610338104565959 1.1561975016096382 66 73 57
-0.2048482949839133 0.0136221580740239 0.9910250046587561 119 134 155
-0.3726778538977075 -0.2361713912344329 1.1418835685299522 74 85 149
-0.0865555733597232 0.0440414824997859 1.0380717939015356 75 68 75
-0.3726778538977075 -0.2361713912344329 1.1418835685299522 74 85 149
0.0429776481159211 -0.0761637184635161 1.0999308148289257 152 147 143
0.4799827659562030 -0.0010281603670665 1.1714613431199057 132 121 101
0.5242517872180629 -0.0053575561445315 1.1977071951112492 202 255 239
-0.2210571941003744 -0.2403122532932510 1.1592387083440965 245 255 255
-0.0085114740880699 -0.0630350319252412 1.0849555849036296 101 131 169
0.2754361867061211 0.2278900639358373 1.1990065586087546 61 77 110
0.1492473646929615 -0.0040167991123213 1.1673608816445942 122 103 89
0.3185015655782540 0.2084284891231028 1.2060294008515584 96 108 108
0.0381268235932192 -0.0630585791061213 1.1084965207397450 81 93 109
0.0578788039235006 0.1483663351363342 1.0665848994659213 48 63 96
0.1026796466463726 -0.0823678533235303 1.2188077841601359 100 115 148
-0.2539873123570270 0.1020263553881350 0.7635873031891995 116 104 108
0.3593704648951693 -0.0077650906858010 1.1577365304062774 255 255 231
0.1835552713931517 -0.0227253229670230 1.2088062109563358 13 54 74
-0.0869766269686588 0.0667466650512816 1.0329122876364540 172 169 178
0.0194194928880764 -0.2014297005356183 1.2600237540921675 222 235 254
-0.3258264844027739 -0.2409771257388790 1.0405069794869894 139 136 155
0.4462621582581588 0.0879961612964787 1.1525389792597740 67 84 136
-0.8145705918536330 0.2545433730630648 1.3577856370085408 52 55 64
0.2386913589492546 0.0999792031080983 1.2023375983866458 127 105 107
-0.2244551958862772 -0.1609565451327787 1.0906987174184128 99 133 161
-0.2256040188584731 0.0196808152056355 0.9627602480979218 99 90 109
0.0440975530971881 0.2338408114917316 0.9242776137198343 32 48 64
-0.3090701043797722 -0.1798966969832274 1.0422814809444183 122 131 160
-0.1016821898425088 -0.0006235186928343 1.0409290515453766 70 65 69
-0.0798996910184722 0.1200791093858652 1.0191555297717227 129 126 117
0.4475047173067860 0.0950814068806162 1.1440378259571697 50 60 85
0.3413488204320052 0.0395518284734920 1.1959351209390479 105 109 120
-0.1673870264131458 0.0776794168710410 0.8177623399093976 108 104 103
-0.2938680122546372 0.1628079946883652 0.7285534662434012 83 90 109
0.4145288989498498 0.1120199894053522 1.1229063312316085 77 70 60
-0.2802879541372828 0.0239914493834534 0.7672777327937348 86 89 98
-0.0622605170793997 0.0341161943960890 1.0637772322552499 100 119 152
-0.0606837080462203 0.0488419527600292 1.0429916545836286 44 63 78
0.0555808535716252 0.1342674376452314 1.0669785028033505 35 50 69
0.3950183687983483 0.2075695590924785 1.0905592528859422 52 48 47
0.1349557294322822 0.1559100214964276 1.1353901434535969 49 47 35
-0.1975018588339953 0.0086870721385387 0.9074730824315145 101 97 98
-0.2117806927656274 -0.1209507743110860 0.8450471195943976 134 133 141
-0.2707256914708401 -0.1901816319745475 1.0801838798621211 77 75 96
-0.1703239837450469 0.0389946436756468 0.8424578137536622 49 58 75
0.4870851440693646 -0.0428910568475784 1.2132657891721612 130 156 145
-0.1945118607076117 0.0044798178152947 0.8175228462445642 130 122 135
0.4406524291355869 0.0875886993292900 1.1485971216123962 45 43 44
-0.3201204589703204 -0.2128048680399114 1.0631988454360359 252 254 251
0.4421302281380382 -0.1152553749545682 1.2494550976016723 122 147 144
0.4104752306316418 0.0923665616650251 1.1251779747856641 118 100 100
-0.2204990452068356 -0.0299306879267661 0.9800219554079196 108 99 104
0.0248144619682788 0.0650460534217430 1.0592279624292880 170 166 163
0.2348050801294496 0.1116756594106910 1.1984137986058099 150 142 131
0.5024711365553922 -0.0165631152673134 1.2037295426445072 125 154 152
-0.1780236888878767 -0.0246426839540112 0.8797600652776866 89 81 78
0.4069653672607973 0.1386727372218184 1.1141709630208707 58 61 52
-0.1945118607076117 0.0044798178152947 0.8175228462445642 130 122 135
0.0650601871765254 -0.1997787151485096 1.2631924452632468 167 168 172
-0.2068002111853911 0.1096750609370006 0.7881365479073379 147 143 134
0.4657874539099406 0.2309410056599775 1.1169977302426473 125 137 133
0.4316835227475085 -0.1329840469491949 1.2520293177755224 136 157 162
0.2111323052469433 -0.1469377323056356 1.3532356518543376 65 84 114
0.3289449901925906 0.1095172847685871 1.2010972299999281 21 37 52
0.1520053355519325 0.2612241761392900 1.1206722377783664 37 53 68
0.1851506357661181 0.0346973532426470 1.1868159712953936 165 173 158
-0.2028827867799198 -0.2130312387711917 1.1584442966250525 65 81 106
-0.0483404120504282 0.1284663920652609 1.0427865878315929 48 56 59
0.4508554026180315 0.2484260208078148 1.1087999255740022 106 109 114
0.4227813629211338 -0.0163719847963503 1.1523553973796803 81 87 109
-0.1671578204808349 0.1552245934225777 0.9707391579473578 101 99 104
0.0105023842417153 -0.1943075060426274 1.2349330200057573 128 119 136
0.2852874200444631 0.1887362166573887 1.2166502057258486 3 22 36
0.5406418565975213 0.2909620174205603 1.2321024079297302 39 37 61
0.2743390213803944 0.2286044716504622 1.2008058457713786 81 95 130
0.0749102283543594 -0.1327923083135648 1.2519973567171152 113 129 155
-0.2880121545837945 -0.0010597840357020 0.7677470076172395 134 144 153
0.0476570302876174 -0.2087301459526406 1.3232815828436733 141 136 143
0.4509179255084326 -0.1067615302439091 1.2439763322984863 147 173 190
0.4934670937489367 0.0304554849396455 1.1822210137276810 94 83 89
0.4434201089518663 0.0526047521474687 1.1597982530130462 120 140 151
0.0131730547536658 -0.0060398527732803 1.0660781093984375 110 101 102
-0.4295798786557062 0.1812549133038913 0.7601441009875683 255 246 255
0.5139319409993555 0.1201392951809963 1.1752456562854052 242 255 228
0.0333307139697041 0.2068985103153110 0.9738833678916937 96 108 122
0.2294101615375020 -0.0059476786771921 1.2076534411772346 101 121 156
-0.6246765126504115 0.4528395270153168 2.2340164930392223 118 132 143
0.4699917018825492 0.0995244278236786 1.1537008951458847 161 162 148
0.2012556820495661 0.1969923617096914 1.1613925968776861 65 56 47
0.3951160188023376 0.1642463816416203 1.1005092398824612 67 58 63
-0.2163780626573636 0.0462942777626490 0.9674185467801200 166 165 163
0.3981025544761231 0.1361944423853109 1.1084103423522176 70 64 66
0.2827352800696821 -0.1795377965143923 1.3748058964037997 70 70 80
0.4985772011779609 0.1954746848882445 1.1498124602097024 125 128 107
-0.2616113094808897 -0.0179854748564791 0.7755262095584573 121 127 141
0.4520316789773228 0.2211039350312866 1.1255446461765786 12 13 18
0.4145062274554305 0.1584078731983918 1.1113476602938215 106 89 99
0.4446438045475815 0.2122648484759589 1.1229250039447232 86 118 141
0.4124837816508495 -0.1952783374144488 1.2749649587700103 53 69 95
-0.2917875062226666 0.0646166201812029 0.7557877079378793 97 91 91
-0.3397534508196460 -0.2540537178450323 1.0310004174018923 195 199 202
0.2470667147633598 0.1233572490155083 0.6311319291940700 156 149 143
-0.2189562415760778 0.1036932574229633 0.9537968687277466 144 147 140
0.1231174100328273 0.2518440805621941 1.0699802807512515 114 130 145
-0.0116954599270659 -0.1549244618864301 1.1779310203990907 91 108 151
0.3952902307837808 0.1589871995840886 1.1016294487208143 74 61 55
-0.0672174786374430 0.0184260043524536 1.0633546590662226 93 113 146
0.3776278371127350 -0.0154627676314396 1.1219830538368860 255 255 248
0.4117109299802725 -0.1896375493855360 1.2752390533519238 104 76 189
-0.1007723054387792 0.1786469807214693 1.0007144235506549 103 103 111
-0.1993337136275743 0.0358963386623054 0.9053227847786368 84 78 88
-0.1195315563751559 -0.0796507809510508 1.0748180770042266 65 87 101
0.2656341509985936 -0.1761917324107582 1.3880742224160472 178 166 180
0.4728480254501303 0.1797893664366451 1.1387617654856521 152 148 123
-0.0173446888167665 -0.2572566909575240 1.2644790970131576 89 96 140
0.0194293617639020 -0.0875939852281780 1.1209341845966165 80 74 74
-0.2017904057565137 0.0021366687096427 0.9187220405341945 115 119 118
-0.1799362540194557 -0.0750522037341460 1.0175422846578510 143 138 134
-0.2223010533640441 0.0554016395977105 0.9600653090355227 65 64 70
-0.0931892527125050 0.1248736244948484 1.0162350318824906 107 100 108
0.0507390223791864 -0.0257857329771641 1.0820568524353686 168 159 126
0.1200515260125395 0.0937910934057024 1.1095653720913066 111 130 134
0.1706868175331520 0.2170899520258356 1.1394029426162982 94 86 97
0.5110833952116661 0.1468290108163491 1.1680857824956061 99 90 95
-0.2909911754113049 -0.1154302652383777 0.7921719271275734 255 255 255
-0.0056145388582480 -0.2474263328207344 1.2626479466085261 0 4 59
0.1857355532848169 0.0954677245752455 1.1736571333997707 100 84 84
0.1179969075157769 0.0090514978754842 1.1233024195561718 116 102 91
-0.2712875209390535 0.0862213333996732 0.7557286917500260 74 72 77
-0.2046664315405077 0.5683816788017125 3.1051509516266078 46 35 31
-0.1671576251169466 0.0572808774595718 0.8394751467526554 94 91 98
-0.1907940655793953 0.0045428337044420 0.9904978566396417 144 151 179
-0.0752244742976988 -0.0874209088877637 1.0759789467174259 133 113 104
0.0015305434530391 -0.2687778528623664 1.2852838947408045 42 45 100
-0.2900899409956104 0.1523442120757677 0.7339177245150342 201 194 186
0.3528632404424243 -0.1632328710051166 1.4143509111309043 98 88 97
-0.1148701987403174 0.0789838816909147 1.0158481875182930 133 139 137
-0.2562095400006962 0.0661075583418389 1.2617333200357606 59 76 104
-0.1772933726798141 -0.0673361944672115 0.8408056433540954 97 87 96
0.4391501207096612 0.0516327087126890 1.1507972902934231 123 139 152
-0.2235784819813378 0.2146042005196335 0.9218705612863742 127 136 151
-0.1779649981395375 -0.0984009420392350 1.0147530418525683 117 109 96
0.5010951867740364 0.3258033807647020 1.3208598247955632 71 71 83
-0.2764403712877860 -0.0380459428603244 0.7829288129198450 157 165 150
-0.3110538658999998 -0.2183571290701533 1.0526676917465800 84 63 132
-0.0307923720859635 -0.1829672299707485 1.1957070377635735 97 102 132
0.5808787158063385 0.0935778343698044 1.1697533890932150 35 37 140
0.0511909852389610 0.1465896807052487 1.0627684427887107 64 76 102
0.3583048912442222 -0.0323783796341944 1.1889587963631498 57 54 85
-0.2058889977107373 0.0486644431128387 0.7975266470508356 155 142 126
-0.1805671112922236 0.1840595642974212 0.8436320563883918 68 78 87
0.1634996193526564 0.2330394306053322 1.1303482696182199 120 127 146
-0.1890854195915389 -0.0579945632976736 1.0099281381070970 64 82 94
-0.2860578519882900 0.1399240378645594 0.7341901374672100 160 151 146
-0.0847888063785816 0.0161384285354230 1.0454820261356790 166 155 163
-0.2214360002818725 -0.2271544211325890 1.1599791855343495 255 252 255
0.1034988072898587 0.2311562067257741 0.9727282170868234 44 53 70
0.0244697764744791 -0.0248008431537294 1.0682352831725683 173 169 157
-0.0449007899974950 -0.0705213804139938 1.0893105566135415 170 172 161
0.4806450456312838 0.1168223762727773 1.1569563918961621 73 66 50
0.4731498859941802 0.0435318584013553 1.1694102107479631 88 76 86
0.0955707364851771 0.2078458450134897 1.0401276094936487 77 63 86
0.0491967909958470 0.0695658538742433 1.0855343721232511 94 118 156
0.4008398366855450 0.1624016569158812 1.1052381382495020 64 64 56
0.5035099170664364 0.1147674664240196 1.1662341979929354 121 122 116
-0.1996315690813011 -0.0340055912569522 0.8250210427413566 95 80 85
-0.2026044532051406 -0.0438223880908578 0.9865742099872971 105 92 99
0.4477563166515847 0.1815741703394793 1.1284946974649555 19 26 68
0.1521813907951431 0.0428075630002567 1.1706755042944545 68 72 101
-0.2251323678671008 0.0466715420890817 0.9557018928994429 75 78 87
-0.0714227875876189 0.0832651996043973 1.0328016174395946 138 140 135
-0.0030825236859314 -0.2533102889086200 1.2881204465439862 75 77 126
-0.2917049165608004 0.0563413295913516 0.7573957153557721 116 108 95
-0.2001901521242682 -0.1442250810308371 0.8817529917474354 110 139 171
0.1645355616273851 0.2714284126263983 1.3835029679923527 208 233 229
0.4154501661703458 0.1626997419398249 1.1122528998823740 141 127 124
0.4320939935830025 0.2253764222582315 1.1063571498218729 118 123 116
-0.1720819924716436 -0.0991251429418081 0.8627930648387246 91 115 159
0.0376316466161979 0.2006142916170797 1.0090979413327328 104 130 131
-0.2197628852836247 0.1139931542351500 0.9506786350586630 83 80 87
0.0378949896097598 0.0120325764117907 1.0767704817306065 121 107 104
0.4797336262420939 0.0828225649765456 1.1647266473300475 62 61 57
0.1634595857675500 -0.0012217390710516 1.1744138134858004 183 187 160
-0.1402029488263770 0.2008131416236521 0.9181045233590824 28 41 49
0.2746872343756145 -0.0617187077502267 1.2867868513614660 37 49 75
-0.0943356733034938 0.0751832141195373 1.0271555498466973 136 136 134
0.4210780199860255 0.1050793223070784 1.1227088168891712 156 146 137
-0.0008051130489989 -0.2290398521320962 1.2694534966286772 69 82 99
0.2376002974142549 0.1034012830008517 1.1994684944065117 153 142 140
-0.0117399410752896 -0.3010380562073469 1.2915768225179178 226 255 255
-0.1604746089857475 0.1169303830125201 0.9827772643316385 64 69 73
0.3429626189827145 0.2514605027269800 1.1418386334804831 40 49 58
-0.2489668877208421 0.0705021709573623 0.7730233736395096 145 142 127
-0.1894945811931019 -0.0608970586992077 1.0054531752122495 134 165 196
0.1883792162897928 0.1043308091938891 1.1731407166300793 91 90 85
0.1197549297802746 0.0768510575428362 1.1423065966358732 158 154 143
0.0517311727009462 -0.0798781048071128 1.1041018728358640 167 164 157
0.1949497971563139 0.2100662052926244 1.1522173056382405 121 122 124
0.2236829958814031 0.1083535769749452 1.1308038831574592 164 164 154
-0.3378502052963613 -0.2031581417256511 1.0812642074296950 109 114 154
0.2759946793538344 0.2558883413284369 1.1370820888267845 83 100 110
0.1782880928738813 0.1557641180862977 1.1564678134517561 89 74 79
0.3383252845620022 -0.0219296440349687 1.2215106907530837 142 149 155
0.1782880928738813 0.1557641180862977 1.1564678134517561 89 74 79
0.5028232078902641 0.1899209192088107 1.1519729812958315 135 137 124
0.0441094607029943 -0.2032004441812126 1.3247990307994180 159 154 158
0.0531964409085379 -0.0644454309819223 1.1088865661662839 121 144 162
0.0484092700870835 -0.1752038214357551 1.2524857536321250 90 96 118
-0.2136629328804596 0.1516482859248207 0.9475437672206901 136 143 149
0.4186170393440411 0.2198263262848346 1.1019142252404144 93 83 73
0.0925324225687202 0.2326184114523484 0.9340076505353727 45 53 74
0.4488934693771234 0.1710040586736759 1.1319247612951251 44 58 93
0.0189095126719731 0.0434639984670702 1.0479413699600422 135 134 139
-0.1243026721175737 -0.1314993531946361 1.4756116281965579 102 134 172
0.3842768171932017 0.0566059007910867 1.1246960148592720 150 150 150
0.1068539633333584 -0.1643510109467910 1.3048931746625207 38 58 93
-0.2524910523468240 0.0267121102058410 0.7800108443947237 93 96 103
0.1435637821452459 0.2732623869678951 1.1146534337257361 40 50 77
-0.2271282738118553 0.1736387052715755 0.9288518891616196 74 76 91
0.2276597768913123 -0.0060358443683991 1.2058723936214579 113 130 148
0.0495395787186277 -0.0221081535177782 1.0820335615375427 157 155 142
0.1504514471977903 -0.0452386514668712 1.1885849533410771 75 88 105
-0.0809289970855971 -0.0812819744788812 1.0700465752375521 104 115 135
0.3613473664643422 0.1523970469612717 1.1384735155846650 45 45 47
0.2291380527085256 0.1077133259635787 1.1930517424574203 140 133 114
0.1858272194277490 0.0894958453602466 1.1749156695292644 97 83 72
-0.2049785781239519 -0.0786230017799272 0.8233499954808395 159 150 141
0.4020605987666682 0.1595897073512127 1.1058237699008191 78 59 45
0.2029834324442202 -0.0571039206170923 1.2165755080054779 127 99 85
-0.1149938862023615 -0.1061459535534852 1.1062195718497438 130 161 182
-0.2042529478493018 0.1364057684201347 0.9630787033247152 37 45 58
0.1149997566791343 0.1559801581075445 1.1225090554703259 96 93 100
0.2899869706971434 -0.0458926874563957 1.2599058588677026 146 151 145
0.4860581010570263 0.1024186729956250 1.1640270069699186 58 68 70
0.1197347770975483 0.1412427399885577 1.1281166997592129 146 143 136
0.1432556422617096 -0.0046749354372549 1.1640764893375704 78 70 59
0.1263850295378875 0.2215297782577196 1.0599680368115711 96 97 115
0.5115080289957088 0.1789661969554410 1.1581575040809267 92 97 103
0.4411014460383166 0.0836753593799649 1.1509984044224821 67 90 121
-0.1677075686408096 0.1093735621126514 0.8242347568055258 151 160 157
0.1692592468885448 -0.0068574093984687 1.1784357132795200 170 160 133
0.1123752201327188 -0.0053966912296401 1.1202975692544856 149 142 124
0.5780727758389033 0.0601441836395161 1.1887286818395388 63 34 186
0.1603358466608617 -0.0406457629314281 1.1934720804493242 129 135 131
0.1387988645606263 -0.0041749140069086 1.1620469973896486 186 177 162
-0.1671307197874850 -0.0400674657191072 1.0057020176025582 113 105 103
-0.2222617326482309 -0.0282721224860937 0.9730127688954329 70 71 89
0.3161081321476557 0.2489206350798866 1.2030294603085245 83 93 103
-0.2168437068488233 0.1976232279269230 0.7603114745332399 50 52 65
0.1827591072903840 0.1136478250740041 0.7895452191456298 51 50 64
0.1347033214265957 0.0407958974858661 1.1631008853031775 87 108 137
0.1207407915071216 -0.0256468494650123 1.1227870042597767 151 173 197
-0.2432937302133137 0.0209760330897910 0.7873593146592562 154 152 129
0.4956214564572924 0.1990304322584736 1.1492406234947363 75 65 64
0.3461848442702893 -0.1711655549707822 1.4082536734807414 24 53 48
-0.1016065723016104 0.0041588589410801 1.0380686533967156 160 153 143
0.1729180724012539 -0.1617977585978444 1.3417061698167725 101 120 162
0.4735663393530540 0.1555438369151083 1.1442842658461345 120 100 89
-0.1019880538101792 0.0565238299948885 1.0280329600544069 108 97 105
0.0353352418536113 0.2009247418145194 1.0105794544364843 104 130 131
-0.1672367728968479 0.0905362335449986 0.8305984829919374 121 131 120
-0.1966380519794816 0.0838708536584846 0.8901221510416074 66 67 71
-0.1971676956176468 0.0998305192385110 0.8870157630317863 64 68 71
-0.1002756685076775 0.0537559176113488 1.0274300452589409 131 132 126
0.3936544776950353 0.0945586378842556 1.1048398540483291 172 193 188
-0.1948345218779578 0.0369112733368811 0.8970193837876586 129 139 131
0.1775953713855755 0.1302359426623284 1.1626509724126253 76 79 84
0.2029905919815412 -0.0570253677976700 1.2164128979267088 127 99 85
-0.1180944685335706 -0.1064964578493059 1.1024701957721252 93 105 143
-0.2887644941938909 0.1007121033029379 1.2790097179318562 127 132 138
-0.2463216659099637 -0.2154890441464864 0.9070558274500482 58 71 113
-0.1970062228023096 0.0972252160669974 0.8874931406237815 74 74 82
0.1777224459047821 0.1024049343122730 1.1685426248509219 81 75 75
0.3867496028674967 -0.0277615651842173 1.1410909601259702 141 161 196
0.4540083826991886 -0.1015258552108323 1.2414926888295734 103 120 150
0.3950829813357195 0.1291419102572713 1.1082566918369157 57 53 52
0.0672768677027912 -0.2009565550313943 1.2650192485175646 101 97 120
-0.3579976681422227 -0.1886936338448614 1.1172105521494520 180 193 201
0.1061474224812557 -0.0517336618923850 1.1464293278418423 144 174 202
0.3982404202513726 0.1498717699954613 1.1056986758101734 66 67 61
0.3031256492713407 0.0414866540335158 1.2489619241130441 78 69 72
0.3966757785014186 0.1677202816406604 1.0997688909633947 159 156 141
-0.1612841810479697 0.1071909663098788 0.9868998867253332 77 72 68
0.4452643935618161 0.0444350733604962 1.1571684226209862 96 109 141
-0.2920411771340827 0.1869442759082531 0.7185976312376402 242 237 218
-0.1603338445486115 0.1609172302358850 0.7998659377362564 153 153 141
0.3188898742730460 0.0965876964708310 1.2298368274730553 133 134 136
0.5812157328072526 0.1487697614437803 1.1563524184952119 45 45 115
-0.2108359312626908 -0.1300142851080578 0.8367813257969579 136 137 132
0.4045377546338056 0.1342495417483793 1.1123427916783644 76 69 59
-0.1491955066456573 -0.0378871849709839 1.0145582683369025 116 107 108
0.3979024606002899 -0.0753338521350939 1.1856990544601054 77 90 134
0.3955302029127276 0.1486306617098441 1.1039006223869261 101 88 98
0.0866796437044045 -0.0371824936345843 1.1151906856441456 97 100 115
0.0653202820539398 0.1424658327124016 1.0715598923601879 44 66 87
-0.2256465250585955 -0.0342690323754725 0.9777960465475057 187 188 183
0.4180779293282078 0.1711495596296666 1.1113045755386570 81 81 91
0.4013918043395274 0.1892510801673934 1.0985844840559875 65 67 62
0.4030680241331089 -0.1092753786605306 1.2165122010995446 130 139 182
0.0632486478345609 -0.1708347855468367 1.2569859181718173 147 147 159
-0.1125626108973052 -0.0571138746446918 1.0484159170954612 172 176 177
-0.0544538038179750 -0.1820242639687416 1.1936424635076885 74 81 97
-0.2152376264377674 -0.0271888784560384 0.9603286586598194 136 142 142
0.0367200339482554 0.0283184082813509 1.0869201938364739 21 40 57
0.1568978581030638 0.1516111944769102 1.1450778315012522 85 93 106
-0.2440973366960258 -0.2117085089180243 0.9057413244352306 51 69 109
-0.1483361221533048 -0.0777292538241990 0.8533611248237719 130 127 120
0.2600910172844648 -0.0303759568033000 1.2427292930886067 140 143 136
0.3886502684540791 -0.0538862628315502 1.1641542133584466 96 95 135
-0.2116094806080129 -0.1570608952036676 0.8840843682992071 57 79 126
-0.2431795928120205 -0.0454265962653636 0.8005321037301020 187 188 192
0.4539196997044938 0.0887796869207318 1.1521286437406684 24 42 42
-0.2009179287337403 -0.0026730523908307 0.8174041094756180 126 124 127
-0.1733328353067536 -0.0019389940109316 0.8292708231108218 101 74 81
0.3506515613544310 0.0105711999820443 1.1787310307505523 148 149 144
-0.2027778912424016 -0.0154338245154426 0.9291897961222617 80 92 90
0.2695522801234497 -0.1180034896496947 1.3760056624377968 252 236 223
0.1305592404472397 0.0338035285572631 1.1593017655271682 74 82 71
-0.2043337336255970 -0.0804661459840133 0.9394197576512019 158 162 163
-0.2943961222492580 -0.1046894511441740 0.7893087581602520 255 254 255
0.0626823412938321 0.1531782002692448 1.0683987236840233 83 99 132
0.3967375477141225 0.0753100116248871 1.1195800383574144 177 170 154
0.1715518295070908 0.2256972686534240 1.1367836633903212 99 112 121
0.3951594619382335 0.1808473585782241 1.0967411561042903 69 60 65
-0.2697907269662976 0.1548294399857211 0.7429530429063114 163 156 140
0.3982906288785228 0.1714049508495886 1.1007582725747482 69 64 71
-0.2141450817870098 0.1859080132858274 0.7655011142214859 35 39 66
0.0066687518001553 -0.0277092207927477 1.0601849365612328 119 116 109
-0.0533564759783330 -0.0864073626229027 1.0903921494684519 125 122 113
-0.0547202553651307 -0.2023683682172529 1.1990367247958740 68 60 81
-0.2255609358062310 0.0957588158910437 0.9449533820027987 70 69 77
-0.2234061295657901 0.1028339045913482 0.9504020588264620 80 70 79
0.4703395715861038 0.1008693538791076 1.1553464214638878 131 119 107
-0.2108821651630975 0.1913639467834445 0.7688583516483194 146 156 166
0.2386913589492546 0.0999792031080983 1.2023375983866458 127 105 107
-0.1701936239627594 -0.0419492339554155 0.8677748885631548 169 170 162
0.0916673667771677 -0.0956939122603373 1.2143149216081852 27 49 62
-0.1946024837789870 -0.0435427948894725 0.9186481965852019 91 91 99
0.4455053059867952 -0.1101135966089476 1.2448049645517167 112 137 133
-0.2035943376754048 -0.0134836112175948 0.9306064071748635 77 85 96
-0.0758639529560550 0.2122107001616845 0.9822109969377482 22 34 58
-0.1967266563074383 -0.0231619423365344 0.9139507262475695 91 91 101
-0.2773383058716851 0.1331831230457854 0.7484371531572246 81 65 50
-0.2239919032561975 -0.2500911657611707 1.1579338494440368 56 89 104
0.0373327387833031 0.2003153242824514 1.0447852891906371 44 59 82
0.4169332503442328 0.1723993409705295 1.1114261768695817 130 111 115
0.0273564714064001 0.2011577469341037 1.0273892558833779 65 66 61
0.2961824975440419 -0.1229259519889344 1.4808982498358962 255 254 255
0.4553233018869642 0.1716851261180807 1.1389667150180458 48 68 93
-0.1992716032262429 0.1205311898729325 0.7894326593880358 169 157 131
0.2906170376156387 -0.0286209291368590 1.2591338905141922 103 95 93
-0.1455239048602919 0.0973562909116542 0.9905706531711758 137 142 138
0.2299949062623486 0.0057424980754465 1.2084870785630955 148 136 110
-0.2235446170206251 0.1030446756858071 0.9503829465561833 52 55 60
-0.1534998062135235 0.0566986217963868 0.9994974353840554 95 87 100
-0.1582762944234001 0.0341489681979237 0.8217223725713291 73 99 116
0.1145186470468226 0.0528874192664955 1.1449747251757967 132 121 117
0.0001729071441404 0.2331208220898552 1.1123220720614544 98 105 111
0.4923518535987462 0.1031903888113383 1.1679949504241363 63 63 73
-0.2229082818137827 -0.0362941403503432 0.9810423153455970 108 102 104
0.0079070861177575 0.0077461696363433 1.0600827125385237 158 157 152
-0.1596430544366030 0.1595207284558845 0.8025611800072265 95 98 107
0.2809777503454130 -0.1476235668018401 1.3683562408478334 170 176 176
0.4954917242358531 0.0966292623206815 1.1705713851086725 61 62 57
0.1592667186413647 0.0366470263921238 1.1708436275127831 100 97 92
0.5203637488284506 -0.0035524823796615 1.1966264334131584 64 69 73
0.2167295781435263 0.2692769156687372 1.1562035130264945 35 57 71
-0.1733073638965221 0.1163835835012446 0.8034526797761868 82 71 77
-0.1807547992440884 -0.0147342643593437 0.8308698564598859 81 76 73
0.4522691066768882 0.0976234041484579 1.1536610034207635 91 105 116
-0.2960222940975648 -0.1300344705729829 1.0506757586319326 78 94 120
0.4198589923894699 0.0051161545617878 1.1502346686554619 76 72 61
0.4009972054016516 0.2379653700328883 1.0845315646690377 83 82 96
0.4118969187925764 -0.2054104290042804 1.2786438044307673 52 54 139
0.0130008242828211 -0.0465295277954473 1.0843741385469103 96 114 154
0.4196215934678028 0.0544846305117040 1.1403960395091481 87 76 90
-0.2779177595154599 0.1171167174765486 0.7442191846428211 139 145 135
0.2665133853486290 0.0550743915111682 1.2311471058428698 66 93 123
0.4132902234773635 0.0912547896651253 1.1276415338314107 62 60 63
-0.0864069370473655 0.0445083137856539 1.0381818090135622 75 68 75
0.3408128032416808 0.0936401699573804 1.1862638584521066 137 140 133
-0.0130103746414437 -0.2324927608038395 1.2563732745711804 255 252 253
0.4080200620386430 0.0879592346667211 1.1235791428351416 80 76 73
-0.2198251150448622 0.1197246404862993 0.9507810617624533 148 156 159
0.0379501139601693 0.0120925278221510 1.0765118290012572 111 101 91
-0.1991504250562722 -0.0290408899388285 0.8229053320657399 189 195 185
0.1719520701250373 -0.1666580995011272 1.3481946700273242 94 103 132
0.4147083664192324 0.0941349601091245 1.1255313045269293 63 54 59
-0.2723250376517897 0.1183656458137416 0.7494101943136963 73 62 66
-0.1582018807868580 -0.0734534413373652 0.8461735422377680 134 125 118
0.2049762103482157 0.1514364701798352 1.1693715485661031 146 143 136
0.2809178804039472 0.1843844667969829 1.2147132720943539 69 81 105
0.4034806761561753 -0.0109995857581029 1.1364796570683759 122 101 80
0.2755218729978852 -0.1107422450105520 1.3658481654020052 123 130 148
0.4158746744080570 0.1569837897158085 1.1136770878560562 89 73 74
0.4529203200041496 -0.0354679096713899 1.1824146669794662 44 69 99
0.0023365697211485 0.1092529361587596 1.0343518234867017 111 107 108
-0.1966877811386872 0.0714315565307281 0.8023734226126908 89 75 72
-0.1711355733084875 -0.0253482625701455 0.8661589699812595 118 127 124
-0.0428089456061310 -0.0965259928293139 1.1390465081220680 69 85 108
0.2339157232776827 -0.0079907442051457 1.2239062121144719 44 56 78
0.3988627990814332 0.1137506315621368 1.1125525350690262 94 88 88
-0.0569513307475717 0.1155310429349990 1.0360371318449617 90 87 80
-0.1997468545692508 0.0200700924216338 0.8108620276477769 188 193 189
-0.2953302875823607 0.1905982831404598 0.7169275381498917 142 108 107
0.3106536764530234 0.2937561496084210 1.1911371111555888 85 82 109
