ply
format ascii 1.0
element vertex 693
property double x
property double y
property double z
property uchar red
property uchar green
property uchar blue
end_header
-0.0742511501406393 0.1746794873638335 1.7949927255289020 142 139 134
0.1576837898429286 0.2086352158428831 1.9567089847044086 87 79 77
-0.4251815543187781 0.1649092144598360 1.6532454772655059 88 88 98
0.8139732384740423 0.2907346080068488 2.0325427029493865 124 129 123
-0.4247456722404644 0.2193198746396438 1.6413014998433162 89 89 91
-0.4780506624641687 0.1901402358818599 1.3202730593420109 141 127 126
-0.3459978676189764 0.3162664982075004 1.4627745571273705 49 61 75
0.3049127573387578 0.4496462888419240 2.0084099872552033 109 122 139
-0.7930268962805134 0.3446404220608286 1.3180697148643055 37 44 52
-0.5154804196200009 -0.3901284825377352 1.8849324846812539 124 139 160
0.2979933410492475 -0.2865319388278265 2.3892822965412206 34 56 77
-0.3813585429015297 -0.2499313761041536 1.5300861768481320 130 164 199
0.1527458795672016 0.0390572235229822 2.0047977713784220 115 92 98
0.1541453618941233 0.0657708979112070 1.9968781102050313 146 128 118
0.1571088003089006 0.0923967077447369 1.9849569633442186 86 79 86
0.7115153180913892 0.2530481417033797 1.9839527400667578 132 120 104
0.7193703940952201 0.2931332204296558 1.9907306226829411 114 132 144
0.7195105032108247 0.2930479044538764 1.9904827511240717 114 132 144
-0.4711348425697143 0.2346202749804449 1.3102718718509898 136 120 120
0.1185652776674835 0.3503683647063504 1.8471739018644926 141 158 168
-0.1633258412833050 0.4076693729619271 1.7515023123334699 43 50 68
0.0306161495135649 -0.1759817900854701 1.9291169435262794 169 162 156
0.2228841822754797 -0.0450127033695810 2.0757306225807861 181 177 174
0.6573614369409911 0.0777896782281641 1.9912530541848328 188 188 176
0.1836749429777979 0.0721790363111788 2.0303957181462078 87 108 137
0.2135703959873838 0.0757978647369241 2.0441849364389566 53 73 100
0.7043053097044515 0.1088995087578514 2.0253678630998064 56 86 114
0.7300752045462719 0.1388721737873711 2.0355628509652788 61 88 118
0.0599346102583679 0.1061201768932759 1.8943693595232753 87 113 148
-0.4131171080792471 0.0953502759311766 1.6750917425476861 159 161 160
0.0107449792283851 0.1998440175087540 1.8201734615523126 137 122 99
0.1001439684004415 0.2112923653672056 1.8739747801014666 124 116 103
0.8062772856751036 0.3034296489488817 2.0267123042861575 86 69 77
0.7059844957426032 0.3060434135450422 1.9797422530612596 55 71 87
-0.3582900784720350 0.2078252168577667 1.3840905023437726 180 174 160
0.7064336992377173 0.3315942685740476 1.9726392153489509 56 72 88
0.7061225748680097 0.3563399315711052 1.9675659410145869 32 34 33
-0.3958021184739612 0.3146656760372091 1.6535998085297516 50 57 65
-0.4553123882674122 -0.0272965622948176 1.3759662993287656 183 188 182
-0.4553123882674122 -0.0272965622948176 1.3759662993287656 183 188 182
0.3939965884405338 0.0834810722728133 2.1373417870229079 154 154 146
0.3928119283665665 0.1077676061761321 2.1328356594788414 167 166 161
-0.3199357416692136 0.0644147123353121 1.7368981358137756 128 115 124
0.2587321687658227 0.1325112259988592 2.0507278594903791 100 81 85
0.6677399289771474 0.1522235250567248 1.9822642243785291 116 101 96
-0.2991693064349847 0.0808630449417821 1.7440357103408468 164 165 159
0.7990320310336171 0.1698977806882792 2.0521278450264639 112 97 100
-0.3502568249300072 0.0610015311728702 1.5154522090150038 82 97 120
0.7633111922051459 0.1762554128984161 2.0272933321167468 161 162 148
-0.3195283459254257 0.0964881889171743 1.7280635191177203 106 99 107
0.2592566999032794 0.1635007416641894 2.0436044606528285 128 113 110
-0.3409340752924795 0.1092138527040175 1.7168692847610150 148 148 140
0.1409299462317366 0.1716897383680259 1.8916878454230235 117 113 102
-0.3193888950663482 0.1827155244342157 1.7107830143856426 117 106 114
-0.3193971725305054 0.1830194802981250 1.7107158471071093 117 106 114
-0.4076308463021498 0.1819549492412312 1.6568644498631497 141 140 146
0.2808123341493983 0.2881684935925973 2.0262731074940330 146 150 151
-0.3922881234934767 0.2027231045212123 1.3681961640379601 179 175 166
-0.4073900754894811 0.2909696023453763 1.6357484978562080 135 142 150
-0.1497023364702725 -0.3981354548142598 2.1131452745804267 142 145 160
-0.1497023364702725 -0.3981354548142598 2.1131452745804267 142 145 160
0.6938569402950628 -0.0561909866594889 2.0453510905095422 176 180 165
0.0167564715076595 -0.1098183877362646 1.9099265083655055 177 174 169
0.2533924417129912 -0.0575251754813157 2.0984058153807741 74 90 124
0.3680735996041132 -0.0333027243252517 2.1539036729383794 51 84 117
-0.3195846636453272 0.0297797620573868 1.4454173257617771 189 193 194
0.2138342997465640 0.1680223755003283 2.0007976413446764 101 121 148
0.6208789591613396 0.2417789919856668 1.9364189211216876 151 151 153
-0.2840802056062939 -0.3297856312483966 2.0433289386493381 102 128 161
-0.3599617579452272 -0.1791959706143192 1.4749730649513839 94 118 152
0.7208766986271247 0.0807607902379153 2.0321279711835150 102 111 168
0.7208766986271247 0.0807607902379153 2.0321279711835150 102 111 168
0.6489179615787046 -0.0671621353174558 2.0321330609592958 57 70 104
-0.0343873020872167 -0.3427753381505891 2.1466313758528579 168 190 214
-0.0119709953177046 -0.3206316086657988 2.1472868445334448 154 177 208
-0.0570693202088605 -0.3260140033214513 2.1222740117439303 111 132 159
-0.1443078265035854 -0.3200944431791022 2.0797004061623849 115 115 139
-0.1443078265035854 -0.3200944431791022 2.0797004061623849 115 115 139
-0.0747305052840446 -0.2866317883493379 2.0657756127573399 165 189 225
-0.6640074599937084 -0.3279983424474406 1.9319547480632242 180 193 201
0.7656547945477520 -0.1201852826354358 2.1584689614046613 89 112 130
-0.3568935331805995 -0.2185602306587139 1.8668612838686274 100 105 134
0.6233432783851778 -0.0897402201960961 2.0424601950292458 96 95 135
0.7981042381331491 -0.0687161519048104 2.1359451012915249 99 122 140
0.3407158676089133 -0.1260988175087390 2.2509828947412358 111 142 186
0.2024784494159552 -0.1304590824907614 2.1665168876755616 140 164 200
0.2276394931176239 -0.1275549564374322 2.1815063155869452 136 157 186
0.0654174246011604 -0.1341650673526110 2.0025678348562024 57 74 94
0.7042090264228792 -0.0270869924680008 2.0216002579076560 126 144 158
0.7046571697199014 -0.0268521418307936 2.0201818071880364 126 144 158
0.7602706244661797 -0.0205642783422128 2.0531527022665310 138 157 174
-0.3769159883987510 -0.1569075112423109 1.4415202538125402 152 179 200
0.4066052663004765 -0.0064746407448047 2.1677505032311992 146 160 163
0.2284734810938846 -0.0265816957804563 2.0723682269732064 68 82 109
0.4536315274046612 -0.0004200424046322 2.1899767184377144 138 144 156
0.2739354921741300 -0.0206833214879950 2.0974893406105450 62 80 116
0.3525441286775587 -0.0112057868201330 2.1400849467443082 51 70 87
-0.0380384590593608 -0.0468020338908066 1.8441728741632282 189 195 183
-0.0038011506192274 -0.0424536636177756 1.8630479466040719 173 169 157
0.2459593765417596 0.0196256361338602 2.0676336088294303 177 178 173
0.4729275582082353 0.0599763326294672 2.1727079232113233 138 145 137
-0.4303827225335748 -0.0361869674672218 1.6899755907873537 199 198 193
-0.4303827225335748 -0.0361869674672218 1.6899755907873537 199 198 193
-0.1965391902498758 0.0016174031740056 1.8236694880848707 124 114 113
0.7824058369567196 0.1132517824845895 2.0538208858263944 164 164 152
0.6790180942566114 0.1260848686836661 1.9940519370524834 117 105 105
0.6383488823615707 0.1242353167224862 1.9686232216709119 172 171 150
-0.4310070531284152 0.0327245886690488 1.6700188706181680 99 90 109
0.3831970265839428 0.1524461679135480 2.1173249840422219 86 83 76
-0.1952751075623440 0.0875176262164922 1.8026888651635831 176 177 172
0.6330710339710002 0.1669931113897389 1.9399748645798420 172 193 188
0.7649920973542235 0.1958508786884491 2.0173412601950744 151 157 143
0.1659840745021603 0.1675423330411803 1.9121462326650149 86 85 101
-0.3046061628646579 0.1293133698513866 1.7196637720335834 158 164 164
-0.3046061628646579 0.1293133698513866 1.7196637720335834 158 164 164
0.3349966414266967 0.2059384168610655 2.0682079300060932 157 158 160
0.7975570566717644 0.2300299669165085 2.0385945111972954 73 78 84
-0.4225111177380862 0.1329858332917502 1.6636167502640358 145 148 153
0.1274925701984915 0.1998863701135173 1.8815086781104995 168 173 166
0.6787593889757367 0.2699059588536989 1.9593801237010853 167 166 136
0.6787593889757367 0.2699059588536989 1.9593801237010853 167 166 136
0.6336396378389003 0.2790999910656104 1.9324516110363685 159 160 146
0.3829969403971453 0.3212994751306653 2.0805203744394318 83 73 74
0.2479082177657464 0.3637012838624028 1.9916701630809881 132 147 144
0.6804073607713718 0.3676691078933511 1.9396647492415835 100 89 87
-0.5384565911598352 0.2509630310326971 1.2734768585919123 209 208 204
-0.3970842467719246 0.2623578220295208 1.3435558214456087 95 110 143
-0.4312372238003424 0.3176459120646127 1.6068881515186619 59 72 88
0.1720397727267396 0.4072027337248137 1.6529230366628698 55 65 92
0.1720397727267396 0.4072027337248137 1.6529230366628698 55 65 92
0.0689257729885731 -0.3441282702292947 2.2067682015091199 176 184 187
-0.0239678946294915 -0.3372547479358471 2.1543734177517586 108 112 124
-0.5382209852907428 -0.3996362595487766 1.9548388171600166 195 194 199
-0.6829404169390454 -0.3544714813206187 1.9437314573794089 254 254 252
-0.6829404169390454 -0.3544714813206187 1.9437314573794089 254 254 252
0.7775429648510881 -0.0930848257461296 2.1412389500565703 132 161 156
0.4490842113508618 -0.0763975127013002 2.2039365071670880 146 151 145
0.4420600553534028 -0.0517518905305711 2.1993925703164372 98 91 85
-0.1221438867586800 -0.1131255582745556 1.8927234282304550 175 181 181
-0.4530563462969169 -0.1281487574338226 1.7175963854986673 129 156 183
0.2275291419012823 -0.0429606769986696 2.0882078946203846 62 76 102
0.3974202647902463 -0.0128663673958184 2.1663604198264106 162 171 166
-0.3258729250567717 -0.0953825494158355 1.5029185623471371 110 109 117
-0.3128575023305878 -0.0872166098193252 1.4765106630653138 155 147 144
0.8126055069211580 0.0596274665756915 2.0843317379961706 128 117 111
0.6376809965686393 0.0420393312972392 1.9869022118301551 177 173 161
0.7009895946792964 0.0604505390394210 2.0195504055795270 105 94 92
0.6996076132316804 0.0609245902734599 2.0225553808321375 105 94 92
0.0242480462618025 0.0295045611216002 1.8842868881231547 126 113 105
0.4504978800024861 0.0929464891922539 2.1699846751457397 84 89 85
0.8177558304840830 0.1399634991103508 2.0647731457982164 155 164 143
-0.3082340671682252 0.0473353621120464 1.7466287418450461 172 171 167
0.6381196182274788 0.1336739265624989 1.9654234943915725 177 170 154
-0.2765313038354789 0.0642466620474461 1.7793397132491637 106 125 167
-0.3264851664698669 0.0588868251602459 1.4706027343707295 165 177 177
0.2446796822498779 0.1536648480232123 2.0392997868755773 115 99 99
-0.2702437833060576 0.0994542173069606 1.7723870678318354 126 161 193
-0.3254836487160446 0.0737748240834472 1.4719670633541977 141 151 150
-0.3271581612700175 0.1001581988347760 1.4592624254163558 82 85 90
-0.3271581612700175 0.1001581988347760 1.4592624254163558 82 85 90
-0.3271581612700175 0.1001581988347760 1.4592624254163558 82 85 90
0.7682127278424732 0.2250767822314513 2.0221375566927655 112 95 103
-0.3267748797569334 0.1239688411962215 1.4534959524373183 113 101 115
0.1672204857022975 0.2080562665872302 1.9174412437666082 166 172 162
-0.4282331306387535 0.1728185819935671 1.6295166492556530 138 148 150
0.0593878559188368 0.2429816730783215 1.8719934404844212 70 92 116
0.3603042909768762 0.3505604375807846 2.0596488449544590 131 142 136
0.3603042909768762 0.3505604375807846 2.0596488449544590 131 142 136
-0.2947097019131530 0.3427147261004866 1.5955659008507803 57 68 88
0.0564787823500169 0.4055103677599564 1.5897505180759743 74 85 107
-0.0617000233764305 -0.3203414893327401 2.1152784225319485 127 140 172
-0.4075551579170693 -0.2930320692153789 1.5428004117549401 167 188 215
-0.4079218661138883 -0.2227411237267154 1.4885457258124182 103 116 133
0.0936440255780753 -0.1556169824552207 1.9549388572930704 168 164 153
-0.3852511435342181 -0.1592199714069896 1.4523835115751440 146 179 210
0.2160139760000104 -0.0782551111578460 2.0737648226220609 117 112 109
0.3002649936330542 0.0072140570754557 2.0869186332303271 85 78 62
0.3105379281658320 0.0082115008118888 2.0931126437056258 130 107 89
-0.3787482409643235 -0.0502975511082342 1.5892604548078864 124 123 128
-0.3353429773609624 -0.0045268868612769 1.4406678047067207 128 116 130
-0.1528384489888865 0.0590453179964988 1.8509772977542160 100 119 152
-0.4239568740020690 0.0606181900662373 1.6500742682484006 157 157 159
-0.4239568740020690 0.0606181900662373 1.6500742682484006 157 157 159
0.7019994255552747 0.1781097454658572 1.9917948904988660 64 83 98
0.6290822864969245 0.1741147263424327 1.9412644363112901 118 112 112
-0.3845520361759892 0.1416659971205495 1.5586632237635694 149 149 147
-0.2227296945766674 0.1877667456735713 1.7642037534083461 158 168 170
0.2395912897961691 0.2430475828851697 2.0171254091127100 144 152 155
-0.3273860112587177 0.2267244408513379 1.4317205494158129 96 97 101
0.7424877407447236 0.3482243048383391 1.9905216119500659 109 143 142
-0.1391103070997635 -0.3713576308831714 2.0965478781249880 200 200 202
0.2887241019691424 -0.2610900811181086 2.3592076138352849 130 155 175
-0.5852865862644455 -0.3688163649613756 1.7942067705586833 111 122 154
-0.5767747525402153 -0.3333973817130583 1.8076316472693639 200 194 196
-0.5767747525402153 -0.3333973817130583 1.8076316472693639 200 194 196
0.0327377532319806 -0.1825606748117035 1.9333167986367943 168 165 160
0.0650412946124172 -0.1642629332727576 1.9430145116609581 190 190 182
0.3364763292241945 -0.0973117170759910 2.1402261717963547 171 164 148
0.7483305738352122 -0.0177530485231848 2.0481827568458715 92 112 137
-0.2991197223485089 -0.1267069581955384 1.4795548925918889 156 146 136
-0.5116261750365563 -0.1236474197321116 1.3715974164967746 148 151 168
-0.3298118173823816 -0.0813738574129756 1.4618373114954222 196 194 195
-0.3369104558307610 -0.0528238127654554 1.4523024005068845 124 123 139
-0.4303865647733556 -0.0430907237409640 1.6932821183211964 182 188 178
-0.4291430355195295 -0.0431353935013193 1.6923531656050148 182 188 178
0.1554051745987090 0.0262883243467294 2.0090116752462479 161 150 130
0.7107978818900011 0.0846471586082408 2.0375043720880073 61 86 117
0.7239637801149411 0.0859951989867721 2.0400370982757297 55 86 114
-0.3879533109176215 -0.0107031279358456 1.5971566829105117 167 167 165
-0.3342546042818706 0.0368554695942256 1.4885126059425431 172 174 171
-0.3872299369300907 0.0580612701055336 1.5817540833853929 156 163 156
-0.3872299369300907 0.0580612701055336 1.5817540833853929 156 163 156
-0.4686750705545223 0.0619974403608683 1.3540879219991981 174 174 166
0.1558463127527099 0.2194192508838852 1.9658282869834547 132 132 124
0.1558463127527099 0.2194192508838852 1.9658282869834547 132 132 124
-0.3390350734153111 0.1366887237241278 1.4112713962574130 141 125 135
-0.3877514374172698 0.1705785961228930 1.5568286564437137 143 142 137
-0.3343325949175263 0.1958223487862224 1.4037572849817397 181 181 173
-0.3498921478747446 0.2622958428909354 1.6769814861370829 139 141 138
-0.4276969675387058 0.2600287629879795 1.6306689025894447 62 77 84
-0.4278575325376986 0.2602453575854959 1.6306573509195936 62 77 84
0.0516949320833745 -0.3851766199949062 2.2133898366097360 116 129 148
-0.1576646480647604 -0.2872736037291051 2.0648276388083859 100 124 158
-0.1220518827200300 -0.1213320670579505 1.8949352497807412 170 172 161
-0.5364501417870124 -0.1547843059909359 1.3528598694085063 175 180 186
-0.5382244796246818 -0.1459237387742016 1.3567430546566894 252 252 252
0.3596474131878100 0.0417784195566691 2.1310879463583432 97 81 82
0.0812765069484040 0.0430432441024391 1.9073068245459046 183 176 166
0.2450504259020242 0.0891534121944326 2.0522407883423091 176 173 168
0.7850158599129011 0.1319818887386185 2.0495246840324199 178 172 150
-0.4783866140072988 -0.0037573853954188 1.3634048119237527 135 133 147
-0.3453122616178547 0.0123092561389211 1.4347440591652809 115 104 120
-0.3753546068309986 0.0392741668328376 1.4141721235074984 124 124 132
-0.3420960839760667 0.0423325836260398 1.4265217475277290 133 125 138
0.6369380853831091 0.1559046133576647 1.9572355712606677 168 168 158
-0.3875065305602435 0.0694084192795170 1.5791532954790235 155 162 155
-0.4600307269549173 0.0752187303600186 1.3404956776127248 124 128 137
0.7082011047270772 0.2913257740041416 1.9827434306803950 111 125 134
0.7680386180798489 0.3148434102100236 2.0017930498684247 156 155 134
-0.5185305256957055 0.2286326768338844 1.2854253347460201 197 193 181
0.7682973336009817 0.3968623370880666 1.9829935644123973 130 136 122
-0.3691451668135473 -0.1724745021359684 1.5848611822279506 172 176 177
-0.4225517344112060 -0.0529281242452929 1.7001575917303628 108 99 104
-0.3726445230608731 0.0063269986213659 1.4208611627017269 130 122 135
-0.3717255142691820 0.0064562829718864 1.4203167679650592 130 122 135
-0.4244890197139305 0.0252329981758852 1.6844754008273513 109 97 109
-0.3338810715586559 0.0515231828544891 1.4839635861800529 164 169 165
-0.2501785050928912 0.1991745659743628 1.7446575473512127 162 162 160
-0.3499888627226864 0.3169999093662068 1.4657593469909882 68 78 87
-0.3729467837632839 0.3263382398134351 1.5077436702879909 60 70 79
-0.3729467837632839 0.3263382398134351 1.5077436702879909 60 70 79
0.7417597568118749 0.4516017074875591 1.9541544273489200 70 81 83
0.7400306552337291 0.4530112276370212 1.9576927994453879 70 81 83
-0.0539214348388693 -0.4544377801671515 2.2558624685851663 255 255 255
-0.4833659988464507 -0.4232592480218109 1.6152712729589966 255 255 253
0.3225928008653082 -0.0600817001502302 2.1364327445605786 87 120 171
-0.5335370147970138 0.2570342824305975 1.2762052929372600 200 194 182
-0.4095266203054597 0.3021413905202031 1.3322485285647634 168 168 170
-0.5401716201985162 -0.1680695866195122 1.3539561336897459 169 185 198
-0.3166991929364838 -0.1255958244456206 1.8019560530893017 89 107 147
0.4088939394830418 0.0979973989395464 2.1530072948305752 66 93 123
0.4373263826679267 0.1019160778351971 2.1695717361602238 66 95 125
-0.2996627399158771 0.0255982014986034 1.7566994859762617 168 169 163
0.7048438434119538 0.1355355122566183 2.0178827518760540 65 89 125
-0.3006948576275403 0.0521790542765745 1.7509786342257669 169 168 163
-0.1885295500878649 0.0672244257246579 1.8146998060215251 176 175 173
-0.3432678174723851 0.0262015384559345 1.4319499910607290 136 123 132
-0.4034663231950967 0.0823679531376173 1.6114035231186676 89 101 123
-0.1731690989648905 0.1272564132655119 1.8133144365186296 92 104 126
-0.5063062665003403 0.2028728021984767 1.3007139587441405 132 122 121
0.1626997314275929 0.3528011703191029 1.8832512700316646 143 155 155
0.3726394548280527 0.4284870466464467 2.0444393028627310 118 137 141
-0.0396358857552240 -0.0793992487973937 1.8719883232382499 82 105 139
0.2357437495725098 0.0865607105451967 2.0488902805131182 166 159 151
-0.3444865588282615 0.0472406070806586 1.7288989870034885 166 168 157
-0.4075131669928433 0.0680825258158193 1.6851056492522012 160 164 163
-0.3452406446191156 0.0733463738316566 1.7233517542674959 159 160 154
-0.2855633302635651 0.1130878522074367 1.7517025516377152 98 109 127
0.2998418090821829 0.1818101562319560 2.0618508521040417 76 102 117
-0.1838626645808228 0.2891526247491389 1.7622670479547604 139 142 147
0.2815059387628031 0.3440313274666082 2.0119501673798799 135 144 139
-0.4260169085195325 0.3340717267131973 1.6105140731001579 124 136 148
-0.3202518374963276 -0.1119645929980212 1.4719096637263120 199 201 196
-0.3414091662626467 -0.0069354552328866 1.7356149213492840 165 165 165
0.7086514114386467 0.1688992828052549 2.0023091118874321 86 98 110
-0.3592999640357489 0.0802600047875544 1.4130258826127593 129 119 118
-0.3823933158916283 -0.1956642027622553 1.6085021569438442 150 151 155
0.2527725920665145 -0.0578316299942590 2.0990961354587649 74 90 124
-0.3281206308810537 -0.1141279824365998 1.7867331773083952 87 102 133
-0.3800336339250942 0.0949781195823036 1.7002380509219257 63 71 90
-0.3800336339250942 0.0949781195823036 1.7002380509219257 63 71 90
0.0084552785723910 -0.3497118333219193 2.2187388131676751 255 255 255
-0.1481678828963634 -0.1411123967557526 1.8778143502090805 163 168 174
-0.5763288528987744 -0.4283043939445571 1.8354716780088953 164 143 202
-0.0716460425412031 -0.3328047399057179 2.1103451516426102 155 175 200
0.3013785404472995 -0.2764579820599653 2.3803301719989034 135 156 177
0.1861312677641840 -0.2677119383293728 2.2967972450910437 119 146 176
0.7597123036752942 -0.1207896497039738 2.1532353029630364 141 171 163
0.7616517504476593 -0.1162170406762318 2.1543953293001672 133 166 157
0.1099824227683110 -0.1330013734276340 2.0315268269776814 146 176 202
0.6732288158218964 -0.0406694720801622 2.0343062619784389 58 85 114
-0.3739899693278825 -0.1792130757247619 1.7600843337667949 111 105 109
-0.3739899693278825 -0.1792130757247619 1.7600843337667949 111 105 109
-0.2447495557805286 -0.1421739729939883 1.8658186635121374 144 152 154
-0.2512596609356676 -0.1380484971013544 1.8678967805467237 65 87 101
-0.2352215913498238 -0.1268019367860008 1.8380612512486247 121 116 122
0.1179526949860674 -0.0514700900335493 1.9536016203614985 161 192 223
0.6394858690444918 0.0149832817800979 1.9957894935242604 110 98 98
0.2763007516969750 -0.0161507830579371 2.0779790109792251 124 155 175
0.0295741367313359 -0.0387168008244958 1.8808562971577336 189 183 167
-0.0495191067497065 -0.0480358748918417 1.8379538891440028 189 192 185
0.1919966641997173 -0.0054327444680796 2.0281634128531465 174 174 148
-0.1877751669598016 -0.0530323595243707 1.8247644469240425 140 129 123
0.6786768932352384 0.0656215178053126 2.0072179212255916 106 96 95
-0.4311634065994182 -0.0605155839084985 1.6960272465375255 187 188 183
-0.4311634065994182 -0.0605155839084985 1.6960272465375255 187 188 183
0.3773887676021792 0.0472511628661332 2.1374307890847608 112 92 101
0.1558946609932150 0.1026089651301406 1.9996732872803047 164 160 149
0.1563583063100717 0.1024820510772147 1.9992218280965064 164 160 149
-0.3165123120558951 0.0514733631235291 1.4263540105106867 164 174 175
-0.3241002804569658 0.0670168523619778 1.4763970387278704 176 189 197
-0.2395572387978845 0.1026020859984352 1.7687651044961883 126 155 173
-0.2175736703984104 0.1120686566908645 1.7834555188180570 160 171 167
-0.2181120679979389 0.1120560645467530 1.7839402851357848 160 171 167
0.6731391609524909 0.2148298078136738 1.9710626710848720 87 78 83
0.1648009956633832 0.2169519990552441 1.9703620779547673 157 163 161
-0.3070786149337970 0.1822036437738806 1.7170720400875252 105 90 97
-0.3070786149337970 0.1822036437738806 1.7170720400875252 105 90 97
0.8126523232579427 0.2818875568763511 2.0374639861606711 91 87 78
0.3600264412307707 0.2942202241162456 2.0734741944548865 134 143 140
0.0352873824812242 0.2552346064668172 1.8506316025655691 67 90 121
0.0534822192475347 0.2574512073103052 1.8606383512867881 80 96 129
0.0528510459778185 0.2573625413103459 1.8613004359686975 80 96 129
0.7158617510576663 0.2983163397325146 1.9866799764171759 55 72 98
-0.4312783347619684 0.2535698524207193 1.6211723425289952 73 81 92
-0.4329789395502843 0.2296036826750227 1.3464770122167840 50 54 101
0.0319237759018356 0.3215703960836062 1.8364064694144329 148 139 96
0.0322804074963908 0.3214783931222416 1.8360960661257144 148 139 96
-0.4541954126776486 0.2581085033788085 1.3229987640202194 116 125 142
-0.4541954126776486 0.2581085033788085 1.3229987640202194 116 125 142
0.0510113925395912 0.3510746266892811 1.8387673752911107 111 140 146
-0.5069651749831732 0.2856561629065786 1.2810482163116830 153 142 136
0.1469638029769610 0.3993171437824027 1.6935861356324677 42 55 74
0.1550513520864702 0.4040194767597759 1.6642386707861061 55 74 89
0.0548695768352207 -0.3861667990080491 2.2030542846217802 97 99 158
0.0548695768352207 -0.3861667990080491 2.2030542846217802 97 99 158
0.6625109561211715 -0.2667588256667603 2.2121442710231536 105 125 150
0.0680760689164733 -0.3633383703072431 2.2279079576531271 173 177 186
-0.5132275575618063 -0.3299728451395019 1.8926936837772041 184 192 194
0.2948444744752607 -0.0700165496393387 2.1245778118680643 115 107 96
-0.4220944716627606 -0.1417520917135530 1.4126601632769289 157 150 140
-0.1761112892006226 -0.0513650005129135 1.8296038176887019 139 125 114
-0.4114990170009654 -0.0501097963813436 1.7031396293093350 189 187 188
0.6376372181003992 0.1517746975243378 1.9622838887372855 167 171 157
0.6303604931617287 0.1569423326609728 1.9394342789701999 202 220 230
0.0255348279960103 0.1277482382677542 1.8592053388549872 98 111 120
0.1708888255287861 0.2171956816101122 1.9156581505381931 162 168 158
0.2381864766242755 0.2424051158100537 2.0105942167516124 188 194 194
0.7684895711085572 0.3225673933360246 2.0030084847176024 90 75 78
-0.3120745362407371 0.2746759050933301 1.3956758259977964 95 98 107
-0.3120745362407371 0.2746759050933301 1.3956758259977964 95 98 107
0.0342583142996590 0.3537474766819355 1.8299801656537453 81 77 91
-0.4675497188587999 -0.3831700413670099 1.5985371686212417 114 144 180
0.0054609870540102 -0.3118078856788364 2.1498277441246634 111 122 154
0.3514077995044769 -0.1097386149490026 2.2415773448181930 117 144 163
-0.3936530324767075 -0.1790762610537352 1.7436290032225179 176 173 164
-0.3868516726432958 -0.1537457987412932 1.4270667847639529 124 141 169
0.1030513683743347 -0.0631177912684758 1.9458723139088072 97 100 115
-0.3261754791223688 -0.0954885046506721 1.5030613245082447 110 109 117
0.1997315383302466 -0.0060364566366613 2.0277199270144508 122 112 100
-0.3846761535992617 -0.0510372695125291 1.6020111102509587 163 165 154
0.7686984153053608 0.2252718688198270 2.0209379338507247 112 95 103
0.0706310087370228 0.1955417144853869 1.8518743262370363 162 162 160
-0.2887612764703320 0.2030432615571572 1.7279644462053312 104 95 100
0.6373294285043749 0.2658715678050438 1.9375178837325120 160 161 155
-0.3223885097691822 0.1743389960518397 1.4324926114492571 154 164 156
0.6375563475473796 0.2743322112318557 1.9353580331591709 161 156 153
0.0001884950018178 0.2895854963426449 1.8059771578661761 102 96 96
0.7254472099402347 0.4407424214074567 1.9492444100650712 131 141 143
-0.4841243767939864 -0.4582662176473315 1.6119160245046935 255 253 255
-0.1370036849650341 -0.3707000288369304 2.0944642757998171 200 200 202
0.0113456722279919 -0.3546580312540386 2.3330569127727321 164 164 162
0.0715241677170786 -0.3179171755367162 2.1998255998511294 178 186 189
-0.1402696653669628 -0.3307458092710558 2.0834009986289206 182 186 197
0.7552688696428514 -0.0994282997268846 2.0800160919328201 159 157 144
0.4300447206051298 -0.0910809854118548 2.1931899845559344 151 152 136
0.3472800275705800 -0.0873903075020428 2.1379129976196620 152 149 144
-0.1807442463164317 -0.1292893655856106 1.8643093993220896 172 173 167
-0.4257909954944823 -0.1053670312986093 1.7190609692672187 77 91 126
-0.3787636078661514 -0.0506009954495182 1.5893315003707928 124 123 128
0.7228915816421281 0.1015924737682493 2.0378270877478872 61 84 126
-0.3787054218945530 0.0334546130370791 1.4078175024249429 188 193 189
0.7021459102347432 0.1775646302200799 1.9918655841261428 64 83 98
-0.3050262762357041 0.0657287968444177 1.4431818432683086 107 113 127
0.3377646361267587 0.1966993727227686 2.0816276195544066 72 90 110
0.0669855650366236 0.1612404017786641 1.8797919142487765 123 121 106
0.7135702975552431 0.2842454496436806 1.9914199741154996 60 75 94
-0.4269946524528895 0.2888243181278969 1.6235808548559743 78 76 87
0.0680092480415995 0.3363618264788880 1.8517707159011561 76 70 74
0.0215465843397992 0.3342635410772707 1.8249331824695576 88 72 82
0.1245883548398360 0.3622034934928863 1.8581816151860953 72 71 79
-0.4090405447135976 0.3129415049966792 1.3312555404582436 70 89 95
-0.4882677689006836 -0.4085707630594154 1.6181807136751101 132 141 184
0.1113469187257944 -0.2904374752775694 2.2710154209905822 67 85 121
0.1527867066253134 -0.0311871686842519 1.9489477589032380 177 164 147
0.1777988317427670 -0.0275758654516295 1.9625607458374970 176 165 147
-0.5131345513592032 -0.0632472217624999 1.3539036671680083 194 197 206
-0.3449205895164418 -0.0424783406558331 1.4466189647228873 110 109 125
-0.3788171859368205 -0.0260355718882042 1.5838365569507358 111 105 115
-0.3321408754387373 -0.0067612848241294 1.7423459806676820 171 172 166
-0.5145869583341587 -0.0357030607148994 1.3484107634079454 191 200 205
-0.3311958627134226 0.0206659850121473 1.7365845790020542 174 174 172
-0.3788092728189554 0.0287455983839470 1.5717181013643728 117 106 112
-0.3870099783121494 0.0304768702795456 1.5880449662354186 163 163 163
-0.2174062097183736 0.0890257466415221 1.7854794089362842 173 175 174
0.7673531677374936 0.2104643619561385 2.0227938047339107 160 155 135
-0.4307740792787568 0.1025786743858218 1.6601575333618972 175 185 176
-0.3362611378772570 0.1509254948336920 1.4638909128495852 153 152 147
-0.3312935915457238 0.2155006877787742 1.6944652141735221 148 154 154
-0.3879432730919039 0.2116647187266210 1.5467981731647122 128 138 129
-0.5072991140205555 0.1893192230393771 1.3057169322242084 142 126 129
0.0221581675264685 0.3316024324247026 1.8255828298465242 88 86 89
0.0596859144565243 0.3380938871890237 1.8466336934082037 100 142 180
0.0239519885630538 0.3419487036409617 1.8247858495884024 125 144 161
-0.4463731397587125 -0.3542151064907986 1.5734493000472602 177 192 221
-0.3763356090436161 -0.1777179272052391 1.6076179392799239 125 128 133
-0.4245510140185867 -0.1324376568751225 1.7351768614799565 87 104 134
-0.3880636374322212 0.0164529351580514 1.5907995758337745 163 163 165
0.0371267168751229 0.3419039072514773 1.8299626125740864 85 76 81
0.0106125746655084 0.3716722181379749 1.7937386755983626 128 138 148
0.1715843692039744 0.3910929017000943 1.8715570067140761 133 138 157
0.2173141035063527 0.4382201822099333 1.9536822699438174 103 116 132
-0.3240863825142298 -0.1615531827561125 1.4762226845998527 99 110 155
-0.3743729774220956 -0.0325314936146830 1.4276828117372451 112 109 128
-0.3654945049616992 -0.0131059690855529 1.7252095053057932 170 169 165
-0.3630907707541224 0.1072230559388556 1.7059601011964403 67 79 93
-0.3452557816147488 0.1549817525779769 1.4854232560534797 72 83 85
-0.3452557816147488 0.1549817525779769 1.4854232560534797 72 83 85
0.3818897061573939 0.2590357108319623 2.0865271777402650 121 110 106
-0.4047415528077733 0.3626846566791507 1.5462699488505161 43 55 67
-0.3348379449030472 0.3462056198083262 1.4216237638111884 102 117 138
0.1862482717667138 0.4505637895605533 1.9458960923825241 47 59 71
0.2996613822176523 0.4644732818474266 2.0071192372316142 37 49 65
-0.2378498157025703 -0.0978132012644362 1.8219521750141243 172 176 177
-0.5390737298011399 -0.1411312385002814 1.3517098356385029 255 255 255
-0.4235063967518319 -0.1116861198143770 1.7238155095665721 95 108 143
-0.2978727495663442 -0.0006959666121361 1.7617805298547418 174 170 167
-0.3437479973722055 0.0184200561644322 1.7348285083921919 166 168 163
-0.4783820367103931 0.0093269577132695 1.3622616530180869 124 126 138
0.1744097157630729 0.1844060175274087 1.9418634829280463 98 97 93
0.7194233340421101 0.2930635211216061 1.9905523017722884 114 132 144
0.0267064491828891 0.3066753091147586 1.8347304337698083 91 80 76
0.0807348163336632 -0.0739843387639633 1.9413437265907267 177 177 179
-0.3870063366086388 -0.1355222480137616 1.7614768994055896 136 167 187
-0.3911112065554189 -0.1083515728731663 1.7563109083474948 134 165 196
-0.3911112065554189 -0.1083515728731663 1.7563109083474948 134 165 196
-0.3390304053453839 -0.0062203693386458 1.7344517773600037 165 165 165
0.0642211445694441 0.0443513431023002 1.9031760483975153 88 112 150
-0.4047804636404111 0.0152004319430862 1.6974421637481876 165 162 157
-0.3875751601187167 0.1234855066221064 1.3809136104253179 167 167 157
-0.1837013767959234 0.2105569931453385 1.7803944075479707 150 151 153
0.3936499683485906 0.3019169162556118 2.0879171030728885 138 148 140
0.0308179280833218 0.2786844242755442 1.8383906802035623 93 84 75
-0.1820041090370476 0.3168035726690727 1.7549971684698362 132 142 144
-0.2855476383685270 0.3729586214899634 1.6049867047997557 100 117 133
-0.3498491075701876 -0.1668294530911003 1.5388422640863875 90 109 141
-0.3743897445160747 0.3516665623680696 1.4967859337888572 95 112 130
0.7168634159710195 -0.0668789261728379 2.0724207508882704 135 163 175
-0.1363750716012739 0.1265382753609484 1.8122410626016139 104 121 151
-0.5629545744349019 -0.3714593768577208 1.8587399726460423 255 255 255
-0.5023715526788415 -0.0845162046634336 1.3672086488964537 154 158 170
0.1030909599207565 -0.1435703815002795 2.1099506175623763 132 155 187
0.0657813914214478 -0.1373219379431821 2.0085639065677237 123 139 154
0.3479275592848937 -0.0194538177276195 2.1390795037894081 171 181 182
0.7601544958257727 0.0693479366484239 2.0495422607713305 137 126 122
0.2225448188951863 -0.0037448622476132 2.0516704302984290 123 109 100
0.2368824717625682 -0.0019825113947484 2.0535890792621601 122 110 96
0.2329925912095591 -0.0003016870711050 2.0514618687963355 183 187 160
0.6561077650999263 0.0631853411463877 1.9945828914466610 107 87 88
0.6503042750732760 0.0648272541382589 1.9918866417538881 98 83 80
-0.3794575812578100 -0.0902530538715630 1.5985633600828795 111 105 107
-0.2175098812839955 -0.0567552216888133 1.8074001525825216 117 109 106
-0.2206036971538098 -0.0557806947116719 1.8041239352850442 175 176 170
0.6354054837565923 0.1209210573470716 1.9690483444542781 94 85 90
0.6674752918366225 0.1290199271106761 1.9865747294403329 101 88 105
-0.3501194956754126 -0.0180629144486098 1.4374711744652759 179 183 169
-0.3820951986075645 -0.0082651119029856 1.5866097599783171 166 165 171
0.7601240116982683 0.1513776696529149 2.0309902730582379 139 128 122
0.8014497204747034 0.1591845606355853 2.0566929991807426 98 86 96
-0.4282650264052249 0.0102360581651698 1.6688636709999203 152 159 152
0.6734304856670883 0.1553295785643891 1.9838020261999905 106 88 86
0.6734304856670883 0.1553295785643891 1.9838020261999905 106 88 86
0.6732105852485418 0.1602154492696315 1.9833314572608998 113 94 96
0.7849645014950756 0.1784390650756202 2.0432895456836904 86 74 86
0.7914380772117964 0.2076358022661794 2.0403751789717299 89 79 80
0.6685650664121846 0.1926940372820709 1.9727852702292392 114 87 78
0.6626698297319188 0.1991049638427224 1.9677735595952848 102 89 80
0.6571531166957272 0.2004783925259388 1.9633470357595566 104 98 102
0.6663305356543875 0.2085890397226871 1.9679094019311818 153 131 110
0.6663305356543875 0.2085890397226871 1.9679094019311818 153 131 110
0.1615909192639779 0.1816441940196481 1.9749397938660653 73 82 87
0.1617428150520451 0.1816329640038449 1.9745726022469139 73 82 87
0.1609888646019160 0.1850782717955035 1.9770128590212763 145 147 133
0.6734022724984617 0.2293048961737850 1.9676943539843623 106 85 82
0.6623597940524371 0.2350622741893738 1.9609936060896169 144 126 106
0.6795727971753635 0.2397240695945128 1.9696293911849314 124 115 110
0.0932687762196927 0.1933394985251872 1.8634976664942269 135 134 130
0.7486785804103679 0.2636126882045736 2.0010590944723070 91 88 79
0.6626673730195085 0.2584930237184717 1.9562523323213554 142 129 112
0.7744370728881225 0.2891760698548750 2.0151415486301119 79 76 85
0.6404202599249991 0.2765350259807349 1.9381275221953320 93 85 96
0.6738605939255169 0.2949341698942025 1.9537853038879360 90 81 82
0.6674229328416087 0.2967468684832014 1.9499576258456095 82 81 86
0.6405154855389130 0.2951489914005487 1.9342729267697261 89 76 96
0.6735452121603790 0.2997353587235638 1.9527563698029631 105 102 113
-0.4290954222580779 0.2252040091504179 1.6216403735008595 134 144 133
0.7802662451946626 0.3243411186300393 2.0092613975209037 89 83 83
0.2696454611047917 0.3078945841346376 2.0196085579820746 83 79 80
0.7800361527669052 0.3337366577840150 2.0078978290202940 88 85 76
0.6671707103576815 0.3243645847355232 1.9448276317707911 76 70 84
0.7684078417718768 0.3549054901775774 1.9954310495438610 84 73 77
0.8027391832287573 0.3592654599037229 2.0139856513729861 77 75 78
0.8027391832287573 0.3592654599037229 2.0139856513729861 77 75 78
-0.3092178624731939 0.2973673280873645 1.6917310284980536 139 143 144
-0.1946024846863132 0.3352038388529135 1.7480944440685016 65 72 80
0.6347967139567312 0.3724634002935687 1.9132937855691328 90 85 92
0.1666882885899449 0.3954577653594314 1.9342011581449701 120 132 132
0.2261728785149612 0.4028255250321685 1.9671381708621500 111 130 144
0.2261728785149612 0.4028255250321685 1.9671381708621500 111 130 144
0.8131693537300627 0.4094479925681480 2.0058125223366150 73 83 82
0.2923949348044350 0.4594359503338694 2.0033079442304302 41 50 81
-0.0813283576755380 -0.3807488960137955 2.1397364654976649 119 128 167
-0.3497115376175618 -0.0718831631175326 1.7346233642587041 140 131 122
-0.3789086780967426 -0.0103620273045338 1.5802711237601317 106 101 108
-0.3789086780967426 -0.0103620273045338 1.5802711237601317 106 101 108
-0.3331023315313308 0.0663483271448957 1.7294167094685944 118 112 116
-0.4309464400410940 0.0923245322362428 1.6568220782244529 85 91 103
-0.3138233967511034 0.1096572156737718 1.7303391329366551 102 97 101
0.2826842698741552 0.2365858419009189 2.0355237806394970 151 151 153
0.2826842698741552 0.2365858419009189 2.0355237806394970 151 151 153
0.2378784281203522 0.2356232793819139 2.0162543252447667 112 104 102
-0.2236457637640080 0.1869787484609139 1.7559037959275061 171 177 173
-0.2236457637640080 0.1869787484609139 1.7559037959275061 171 177 173
0.6783883269511838 0.2670910965013361 1.9635397963903798 116 106 97
0.2701720511503423 0.2795494384424597 2.0258364822601709 88 86 89
0.6350428917474489 0.3443759716216171 1.9195721182978571 97 79 93
-0.4721848041668049 0.2455455127390227 1.3127525928777992 193 189 177
-0.3121891269194306 0.2771264588882639 1.3909995893559828 173 180 172
0.7023567368206352 0.3979559735668463 1.9407939886950896 128 139 131
0.1688555404999835 0.1590349475648161 1.9324974653206706 110 113 118
-0.3500131851097703 0.1814043977216499 1.3931645027499520 172 169 154
-0.4067020223959555 0.3122028970655660 1.3314545530556838 80 82 120
-0.0106674562340706 -0.0439596545094202 1.8599324220891522 139 129 117
-0.2875492181971528 0.0049724546686827 1.7714811449892760 135 120 115
0.1497367197471068 0.1036514971148451 1.9959752320382338 122 104 100
-0.3215922535594909 0.0325759098389751 1.4648296943910657 168 178 177
0.6303529187023204 0.1620072822546227 1.9409699020858724 94 96 108
-0.3829891786947968 0.0549099837330548 1.7172554058381710 132 158 181
-0.3829891786947968 0.0549099837330548 1.7172554058381710 132 158 181
-0.3140632291185417 0.0568435633369063 1.4401654688123453 182 179 174
-0.3705419447663235 0.0650590272165995 1.5517054490732769 145 151 147
-0.4273068014639093 0.1293001113181439 1.6592450495176418 103 93 94
-0.3780774139758010 0.1302198901094624 1.5592616201413974 154 154 152
0.0602875037237365 -0.3690214480442364 2.2513226182152164 111 113 128
-0.3446923177086134 -0.0424759986696667 1.4465889761314497 110 109 125
-0.3623385222166547 0.0757210629371849 1.5360529118275126 87 99 111
-0.4321017304072663 0.1025629183047234 1.6610011928360238 175 185 176
0.0440433160222107 0.2979672137108400 1.8467870347692694 117 145 182
0.0441630656518141 0.2979355385075868 1.8467043308367306 117 145 182
0.0220332811928178 -0.3139312078980298 2.2090038338107756 86 92 114
0.1163500818928380 -0.1540128949138088 2.1173895454785665 92 124 171
-0.3351623480335863 -0.0325812765863179 1.5029141862736100 172 179 172
-0.3783483503976229 0.0005871693482004 1.5775161917552796 100 94 96
-0.3897608477402513 0.0436388463443934 1.5850881485116064 163 163 161
-0.3786560266297402 0.0543860079515078 1.5664061869695973 111 104 112
-0.3791988624859882 0.1398967854841578 1.5468605893243366 103 93 102
0.0269751082480594 0.2615398719815934 1.8453767114708730 103 122 154
-0.3885651936500814 0.2400708810466373 1.5410034123550882 124 134 133
0.0217660509112518 0.3318330128659348 1.8257654209334819 88 86 89
-0.5129473735960499 -0.3892853986736977 1.8835455082480852 158 165 184
0.2874696663649696 0.0770773890766798 2.0912873843763791 103 110 102
0.2874696663649696 0.0770773890766798 2.0912873843763791 103 110 102
-0.3685746819158391 0.0422277968456335 1.5492445300636990 158 158 156
0.1492425996622333 0.0658311535001215 2.0042979151820774 146 128 118
0.1493590678127404 0.0928608613391496 1.9982991949479334 132 121 117
0.1489332204836391 0.1198375522505422 1.9929020296878293 116 102 102
-0.3182603964359916 0.1482095183169637 1.7169618852472108 125 118 126
-0.4232416676181094 0.2710120842526377 1.3309973356362610 176 166 154
0.1816377859674113 0.3836408041604052 1.9675758217124470 30 42 56
-0.3200492001814675 0.0075113028579156 1.7484575970911476 104 99 103
0.1692674933105288 0.1382786193659357 1.9967598201957257 155 155 147
0.1647782187541359 0.1711749894534361 1.9843854329647854 146 147 139
-0.2953122056482493 0.1947891251186192 1.7197372689430594 133 133 133
-0.3914693743385343 0.1597020769397326 1.3747059592947286 180 169 165
-0.2053713746785057 0.2155968610659674 1.7676218304145135 107 100 108
-0.2053713746785057 0.2155968610659674 1.7676218304145135 107 100 108
-0.3192380806329584 0.2594161725080346 1.6938606049532821 104 99 106
-0.3192380806329584 0.2594161725080346 1.6938606049532821 104 99 106
-0.3720215180618097 0.0068080218727929 1.7194441568365910 144 151 179
-0.3720215180618097 0.0068080218727929 1.7194441568365910 144 151 179
-0.3566646005064762 0.0318805080564712 1.4205979169650347 153 144 147
0.7065835307149271 0.2717998511518157 1.9850913457175010 52 69 85
0.7325080095356996 0.1728392922756113 2.0268024625505969 91 105 116
0.1586717558953515 0.1978085931932163 1.9101790035025026 161 166 159
0.2099987204903013 0.1678676543043512 2.0034289069431517 101 121 148
-0.4251002069148308 -0.0501427268804226 1.6878743653300434 70 71 89
0.6459374869903103 0.1637222466657229 1.9652261373923898 70 68 69
0.6351735994892214 0.2268456387024792 1.9458560666757916 57 53 52
0.6403263829209807 0.2390690075012520 1.9462360911758136 70 64 66
0.6400552525905211 0.2438143712612219 1.9456145316448035 63 61 66
0.6348465124281817 0.2501098957514734 1.9410059284897618 63 55 53
0.6511881102165986 0.2592368364163683 1.9485162183557396 70 65 59
0.6699471108239284 0.2850628309597847 1.9535402280158152 141 127 124
0.6352157468347512 0.2875577066431584 1.9324387421284379 67 58 63
0.3365009922745001 -0.1364919987163670 2.2418821163739060 22 54 67
0.0552782067930341 0.3349467191294385 1.8459223186775937 102 113 133
0.3365009922745001 -0.1364919987163671 2.2418821163739056 22 54 67
-0.2485754016973751 -0.0601125750889224 1.7907280099686351 112 104 101
0.3448685181472234 -0.1335458079924014 2.2487692455893282 12 39 60
0.6355204837605706 0.2784632989975323 1.9343864317670905 74 61 55
0.3045760764131936 -0.0921603433254954 2.1270056560139765 142 143 129
0.6406346596450524 0.2999666038847634 1.9329867147707400 69 64 71
0.3239145763774905 -0.0895477020621781 2.1384226094533068 154 157 162
0.6351412207974786 0.3064390830055186 1.9283967192234168 59 54 58
0.3239145763774905 -0.0895477020621781 2.1384226094533068 154 157 162
0.6351412207974786 0.3064390830055186 1.9283967192234168 59 54 58
0.2289092206280776 -0.0695774681293782 2.0814730342439520 143 144 138
0.0000641937378065 -0.0428795150186730 1.8664743286870502 116 106 104
-0.3795406608966767 -0.0516447969660242 1.4293627326614642 144 151 143
-0.0238369499254918 -0.0461456702786976 1.8544519759471132 119 108 102
0.0730204260586897 -0.0565629715912942 1.9267845732426025 123 126 131
-0.0328883284172522 -0.0473776841650406 1.8474947488908691 119 116 109
0.0730204260586897 -0.0565629715912942 1.9267845732426025 123 126 131
-0.4307487964452108 -0.0693045350392739 1.6972926168389650 160 157 140
-0.0595361857703570 -0.0205388168179658 1.8367433809190226 145 142 125
-0.0496576468020807 -0.0481208923241249 1.8381152899934656 170 159 157
-0.3788572175276862 0.0717989302708458 1.5619973690570794 82 82 92
0.8077693893216136 0.0331501929238321 2.0908490200500038 132 101 96
-0.0265760757969172 -0.0453147349953545 1.8503668289916837 170 170 168
-0.4301709156195049 0.0793400819186311 1.6578321721176372 75 78 87
0.5566416995866945 0.0215662182420351 2.0659660289789539 122 126 125
-0.3200881433716031 -0.0370034603281736 1.7591312660804983 53 62 59
-0.4298603308484607 -0.0047590564579358 1.6755937240181555 88 85 92
-0.0102570155096237 -0.0026331820522788 1.8633712998579544 109 98 96
0.2782215203795302 -0.0281404301679130 2.1002602486260860 199 205 191
-0.3256536427185918 0.0979767036328767 1.4592741076398752 94 91 98
0.1158803005145733 0.0123305812449437 1.9288076596084009 108 99 94
0.3870972867300714 -0.0288959634881081 2.1820868151683324 59 78 92
0.0178413771389421 0.3507813823607223 1.8225999740797809 70 54 67
-0.4694877836954058 -0.0297814516657292 1.3745023393630920 146 145 141
0.3562426010945715 -0.0194256102251305 2.1477965469920526 42 58 84
-0.3251338851710406 -0.0470716916895116 1.4917231444864665 108 104 118
-0.3873232791518083 -0.0155144856505125 1.7140945647737198 125 121 109
0.8563443654221546 -0.0046424149088650 2.1055982287387733 202 255 239
-0.3254935449416510 0.0356374386270000 1.4735384331448051 91 94 103
0.4775828807844307 0.0549242419561078 2.1909585233792011 64 54 55
0.3499485883525302 -0.0077192771199926 2.1391181345379473 114 128 155
-0.3254935449416510 0.0356374386270000 1.4735384331448051 91 94 103
0.6722271280621300 0.0910512231236385 1.9964770226690487 90 74 74
0.0289925590321315 -0.0055117008293384 1.8853210977065205 101 92 97
-0.3372417770766486 0.1512108132296452 1.4761562307835732 70 73 88
0.6720976609010955 0.0913277492288036 1.9967424585244762 90 74 74
0.0289968507144528 -0.0055688449986559 1.8854146615219920 101 92 97
-0.3254690573057895 0.1488178162472480 1.4479351528700213 85 83 94
0.2488424432024419 0.0775992824604355 2.0584548872432213 131 108 100
0.2946475579840130 0.0067186295841848 2.0846716120839011 169 169 141
-0.3257838773427026 0.2032786143373161 1.4360653173683791 75 76 81
0.5885591607270579 0.0914762554587419 2.0024622785008330 124 131 124
0.2946641903223932 0.0066360014504005 2.0846701724064682 151 140 118
-0.3217563759586549 0.1038524933130466 1.7280896354766648 90 84 88
-0.5124606326868973 0.0177526655507731 1.3359710633752111 139 142 131
0.3049971238383284 0.0083052287352418 2.0905025223871245 143 130 111
-0.3793921402576277 0.1946959317894684 1.5351301544733860 68 67 73
0.7724207187691307 0.1312353763028723 2.0463254819198782 115 95 96
0.3152576975588185 0.0094169133759281 2.0961916178950100 147 139 118
0.6357791284798348 0.3530726457864033 1.9167528786298829 125 127 124
-0.4486355765445162 0.0400846982056308 1.3696646729287176 67 74 93
0.6505064735908300 0.0169075092652717 2.0015737596797210 85 76 69
-0.4067547785883822 0.0687207858885334 1.6817282547452599 144 140 141
-0.4131716080896163 0.0529195927755992 1.3785241676066802 132 143 147
0.3826801399659997 0.0158429140684908 2.1349543817042020 82 74 63
0.6705679871126574 0.2751741842072208 1.9561293168655738 107 92 87
-0.7684180652969524 0.3303028303591030 1.3128192822053544 79 73 85
-0.3968085857410402 0.0545627361625536 1.3880337843648876 137 132 128
0.4825820844540727 0.0290184410859323 2.1883393812998491 109 100 91
0.7195751801578675 0.2930269611154007 1.9903862693068219 77 96 111
0.0659829856568807 0.3508400919743318 1.8428079621740145 86 75 73
0.2099333660785353 -0.0765480404757795 2.0759631879948524 75 88 105
-0.7684180652969524 0.3303028303591030 1.3128192822053544 79 73 85
0.3800508115609150 0.1469095023254327 2.1172276942720760 106 85 84
0.0827539980827351 0.0296949358660552 1.9113653939503050 119 114 120
-0.2291607590815007 0.2275241391109621 1.7537555364155208 124 125 129
-0.3264489285401032 0.3448070824655006 1.6716681604790775 127 142 149
